X,Y,Z
577.0050741285086,-2023.8920411586296,-64.00543150271551
577.0050741285086,-1307.36361144064,-56.00543150271551
577.0050741285086,-590.8351817226503,-35.00543150271551
577.0050741285086,125.69324799638707,11.99456849728449
577.0050741285086,842.2216777143767,-9.00543150271551
577.0050741285086,1558.7501074323663,-54.00543150271551
577.0050741285086,2275.278537150356,-41.00543150271551
577.0050741285086,2991.888968291343,-24.00543150271551
577.0050741285086,3708.417398009333,-21.00543150271551
577.0050741285086,4424.9458277273225,-17.00543150271551
577.0050741285086,5141.474257445312,4.99456849728449
577.0050741285086,5858.0026871643495,31.99456849728449
577.0050741285086,6574.531116882339,61.99456849728449
577.0050741285086,7291.059546600329,49.99456849728449
577.0050741285086,8007.669977741316,21.99456849728449
577.0050741285086,8724.198407459306,36.99456849728449
577.0050741285086,9440.726837177295,61.99456849728449
577.0050741285086,10157.255266895401,37.99456849728449
577.0050741285086,10873.783696613391,82.99456849728449
577.0050741285086,11590.312126332312,107.99456849728449
577.0050741285086,12306.840556050302,125.99456849728449
-350.43511141091585,-33649.42123212863,-77.00543150271551
-350.43511141091585,-32932.80713899864,-70.00543150271551
-350.43511141091585,-10717.442207060638,-68.00543150271551
-350.43511141091585,-10000.82811393065,-35.00543150271551
-350.43511141091585,-9284.21402080066,-67.00543150271551
-350.43511141091585,-7850.9038233147,-80.00543150271551
-350.43511141091585,-7134.289730184595,-59.00543150271551
-350.43511141091585,-6417.675637054606,-46.00543150271551
-350.43511141091585,-5701.061543924618,-58.00543150271551
-350.43511141091585,-4984.4474507936975,-42.00543150271551
-350.43511141091585,-4267.833357663592,-36.00543150271551
-350.43511141091585,-3551.2192645336036,-47.00543150271551
-350.43511141091585,-2834.5231601776322,-53.00543150271551
-350.43511141091585,-2117.9090670476435,-53.00543150271551
-350.43511141091585,-1401.2949739176547,-46.00543150271551
-350.43511141091585,-684.680880787666,-11.00543150271551
-350.43511141091585,31.933212342322804,26.99456849728449
-350.43511141091585,748.5473054723116,24.99456849728449
-350.43511141091585,1465.161398603348,-20.00543150271551
-350.43511141091585,2181.775491733337,-45.00543150271551
-350.43511141091585,2898.471596089308,-12.00543150271551
-350.43511141091585,3615.085689219297,9.99456849728449
-350.43511141091585,4331.699782349402,26.99456849728449
-350.43511141091585,5048.313875479391,21.99456849728449
-350.43511141091585,5764.92796860938,39.99456849728449
-350.43511141091585,6481.542061739368,43.99456849728449
-350.43511141091585,7198.156154869357,14.99456849728449
-350.43511141091585,7914.852259226376,28.99456849728449
-350.43511141091585,8631.466352356365,32.99456849728449
-350.43511141091585,9348.080445486354,56.99456849728449
-350.43511141091585,10064.694538616342,77.99456849728449
-350.43511141091585,10781.308631746331,112.99456849728449
-350.43511141091585,11497.92272487632,113.99456849728449
-350.43511141091585,12214.536818006309,117.99456849728449
-1278.2999490611255,-33747.2349729226,-50.00543150271551
-1278.2999490611255,-33030.53519231966,-75.00543150271551
-1278.2999490611255,-12245.913470705622,-76.00543150271551
-1278.2999490611255,-11529.213690102682,-44.00543150271551
-1278.2999490611255,-10812.513909499627,-33.00543150271551
-1278.2999490611255,-10095.814128896687,-4.00543150271551
-1278.2999490611255,-9379.114348293631,-43.00543150271551
-1278.2999490611255,-8662.414567690692,-75.00543150271551
-1278.2999490611255,-7228.932985452702,-76.00543150271551
-1278.2999490611255,-6512.233204849646,-43.00543150271551
-1278.2999490611255,-5795.533424246591,-60.00543150271551
-1278.2999490611255,-5078.833643643651,-34.00543150271551
-1278.2999490611255,-4362.133863040595,-35.00543150271551
-1278.2999490611255,-3645.434082437656,-49.00543150271551
-1278.2999490611255,-2928.6522808026057,-52.00543150271551
-1278.2999490611255,-2211.9525001996662,-42.00543150271551
-1278.2999490611255,-1495.2527195966104,-36.00543150271551
-1278.2999490611255,-778.552938993671,-0.0054315027155098505
-1278.2999490611255,-61.853158390615135,40.99456849728449
-1278.2999490611255,654.8466222123243,15.99456849728449
-1278.2999490611255,1371.5464028153801,-6.00543150271551
-1278.2999490611255,2088.2461834183196,-22.00543150271551
-1278.2999490611255,2805.02798505337,-38.00543150271551
-1278.2999490611255,3521.727765656309,-1.0054315027155099
-1278.2999490611255,4238.427546259365,0.9945684972844901
-1278.2999490611255,4955.1273268623045,10.99456849728449
-1278.2999490611255,5671.82710746536,29.99456849728449
-1278.2999490611255,6388.5268880683,5.99456849728449
-1278.2999490611255,7105.226668671356,38.99456849728449
-1278.2999490611255,7822.008470306406,49.99456849728449
-1278.2999490611255,8538.708250909345,61.99456849728449
-1278.2999490611255,9255.408031512401,66.99456849728449
-1278.2999490611255,9972.10781211534,72.99456849728449
-1278.2999490611255,10688.807592718396,123.99456849728449
-1278.2999490611255,11405.507373321336,125.99456849728449
-1278.2999490611255,12122.207153923344,117.99456849728449
-2205.740134611726,-13057.881524881697,-68.00543150271551
-2205.740134611726,-12341.096111178631,-33.00543150271551
-2205.740134611726,-11624.310697476612,-11.00543150271551
-2205.740134611726,-10907.525283774594,-7.00543150271551
-2205.740134611726,-10190.739870071644,-1.0054315027155099
-2205.740134611726,-9473.954456369625,-32.00543150271551
-2205.740134611726,-8757.169042666676,-67.00543150271551
-2205.740134611726,-8040.301598131657,-81.00543150271551
-2205.740134611726,-7323.516184429638,-81.00543150271551
-2205.740134611726,-6606.7307707276195,-72.00543150271551
-2205.740134611726,-5889.94535702467,-74.00543150271551
-2205.740134611726,-5173.159943322651,-67.00543150271551
-2205.740134611726,-4456.3745296206325,-55.00543150271551
-2205.740134611726,-3739.5891159176826,-62.00543150271551
-2205.740134611726,-3022.7216713826638,-61.00543150271551
-2205.740134611726,-2305.936257680645,-49.00543150271551
-2205.740134611726,-1589.1508439776953,-29.00543150271551
-2205.740134611726,-872.3654302756768,-1.0054315027155099
-2205.740134611726,-155.5800165736582,31.99456849728449
-2205.740134611726,561.2053971294081,34.99456849728449
-2205.740134611726,1277.9908108313102,6.99456849728449
-2205.740134611726,1994.7762245343765,-13.00543150271551
-2205.740134611726,2711.6436690683477,-30.00543150271551
-2205.740134611726,3428.4290827712975,-24.00543150271551
-2205.740134611726,4145.214496473316,-20.00543150271551
-2205.740134611726,4861.999910176382,-13.00543150271551
-2205.740134611726,5578.785323878401,-11.00543150271551
-2205.740134611726,6295.570737580303,-7.00543150271551
-2205.740134611726,7012.356151283369,9.99456849728449
-2205.740134611726,7729.223595818388,20.99456849728449
-2205.740134611726,8446.009009520407,56.99456849728449
-2205.740134611726,9162.794423222309,77.99456849728449
-2205.740134611726,9879.579836925375,100.99456849728449
-2205.740134611726,10596.365250627394,91.99456849728449
-2205.740134611726,11313.150664330344,97.99456849728449
-2205.740134611726,12029.936078032362,114.99456849728449
-3133.604972251691,-14587.000729488675,-79.00543150271551
-3133.604972251691,-13870.047618008684,-71.00543150271551
-3133.604972251691,-13153.176547163632,-53.00543150271551
-3133.604972251691,-12436.305476317648,-21.00543150271551
-3133.604972251691,-11719.434405472595,-21.00543150271551
-3133.604972251691,-11002.563334627659,-23.00543150271551
-3133.604972251691,-10285.692263781675,-40.00543150271551
-3133.604972251691,-9568.821192936623,-53.00543150271551
-3133.604972251691,-8851.950122091686,-72.00543150271551
-3133.604972251691,-8134.997010610648,-79.00543150271551
-3133.604972251691,-7418.125939765596,-79.00543150271551
-3133.604972251691,-6701.25486892066,-72.00543150271551
-3133.604972251691,-5984.383798074676,-54.00543150271551
-3133.604972251691,-5267.512727229623,-66.00543150271551
-3133.604972251691,-4550.641656384687,-60.00543150271551
-3133.604972251691,-3833.770585538703,-59.00543150271551
-3133.604972251691,-3116.8174740585964,-52.00543150271551
-3133.604972251691,-2399.9464032136602,-45.00543150271551
-3133.604972251691,-1683.0753323676763,-31.00543150271551
-3133.604972251691,-966.2042615226237,-12.00543150271551
-3133.604972251691,-249.33319067768753,30.99456849728449
-3133.604972251691,467.5378801682964,29.99456849728449
-3133.604972251691,1184.408951013349,9.99456849728449
-3133.604972251691,1901.2800218584016,11.99456849728449
-3133.604972251691,2618.233133339323,-13.00543150271551
-3133.604972251691,3335.1042041843757,-27.00543150271551
-3133.604972251691,4051.975275029312,-0.0054315027155098505
-3133.604972251691,4768.846345875296,10.99456849728449
-3133.604972251691,5485.717416720348,26.99456849728449
-3133.604972251691,6202.588487565401,36.99456849728449
-3133.604972251691,6919.459558410337,19.99456849728449
-3133.604972251691,7636.412669891375,27.99456849728449
-3133.604972251691,8353.283740736311,17.99456849728449
-3133.604972251691,9070.154811582295,43.99456849728449
-3133.604972251691,9787.025882427348,47.99456849728449
-3133.604972251691,10503.8969532724,58.99456849728449
-3133.604972251691,11220.768024117337,81.99456849728449
-3133.604972251691,11937.63909496332,108.99456849728449
-4061.04515780136,-15399.363160880632,-72.00543150271551
-4061.04515780136,-14682.40648725559,-49.00543150271551
-4061.04515780136,-13965.36776319868,-49.00543150271551
-4061.04515780136,-13248.411089573638,-53.00543150271551
-4061.04515780136,-12531.454415948596,-22.00543150271551
-4061.04515780136,-11814.49774232367,-9.00543150271551
-4061.04515780136,-11097.541068698629,-3.00543150271551
-4061.04515780136,-10380.584395073703,-17.00543150271551
-4061.04515780136,-9663.627721448662,-54.00543150271551
-4061.04515780136,-8946.67104782362,-68.00543150271551
-4061.04515780136,-8229.632323766593,-58.00543150271551
-4061.04515780136,-7512.675650141668,-70.00543150271551
-4061.04515780136,-6795.718976516626,-78.00543150271551
-4061.04515780136,-6078.7623028917005,-49.00543150271551
-4061.04515780136,-5361.805629266659,-51.00543150271551
-4061.04515780136,-4644.848955641617,-43.00543150271551
-4061.04515780136,-3927.892282015644,-46.00543150271551
-4061.04515780136,-3210.853557958617,-41.00543150271551
-4061.04515780136,-2493.8968843336916,-29.00543150271551
-4061.04515780136,-1776.9402107086498,-32.00543150271551
-4061.04515780136,-1059.983537083608,-10.00543150271551
-4061.04515780136,-343.0268634586828,13.99456849728449
-4061.04515780136,373.92981016635895,26.99456849728449
-4061.04515780136,1090.8864837914007,43.99456849728449
-4061.04515780136,1807.843157416326,16.99456849728449
-4061.04515780136,2524.881881473353,8.99456849728449
-4061.04515780136,3241.838555098395,-24.00543150271551
-4061.04515780136,3958.79522872332,-20.00543150271551
-4061.04515780136,4675.751902348362,-8.00543150271551
-4061.04515780136,5392.708575973404,-7.00543150271551
-4061.04515780136,6109.665249598329,6.99456849728449
-4061.04515780136,6826.621923223371,28.99456849728449
-4061.04515780136,7543.660647281329,62.99456849728449
-4061.04515780136,8260.61732090637,52.99456849728449
-4061.04515780136,8977.573994531296,57.99456849728449
-4061.04515780136,9694.530668156338,82.99456849728449
-4061.04515780136,10411.48734178138,80.99456849728449
-4061.04515780136,11128.444015406305,103.99456849728449
-4061.04515780136,11845.400689031347,105.99456849728449
-4988.90999545157,-17646.008224033634,-78.00543150271551
-4988.90999545157,-16928.965923602693,-69.00543150271551
-4988.90999545157,-16211.923623171635,-66.00543150271551
-4988.90999545157,-15494.881322740694,-58.00543150271551
-4988.90999545157,-14777.839022309636,-39.00543150271551
-4988.90999545157,-14060.714661647682,-38.00543150271551
-4988.90999545157,-13343.672361217672,-48.00543150271551
-4988.90999545157,-12626.630060786614,-14.00543150271551
-4988.90999545157,-11909.587760355673,-4.00543150271551
-4988.90999545157,-11192.545459924615,-5.00543150271551
-4988.90999545157,-10475.503159493674,-30.00543150271551
-4988.90999545157,-9758.460859063664,-61.00543150271551
-4988.90999545157,-9041.418558632606,-52.00543150271551
-4988.90999545157,-8324.294197970652,-72.00543150271551
-4988.90999545157,-7607.251897539594,-81.00543150271551
-4988.90999545157,-6890.209597108653,-66.00543150271551
-4988.90999545157,-6173.167296678643,-57.00543150271551
-4988.90999545157,-5456.124996247701,-66.00543150271551
-4988.90999545157,-4739.0826958166435,-57.00543150271551
-4988.90999545157,-4022.040395385702,-35.00543150271551
-4988.90999545157,-3304.916034723632,-40.00543150271551
-4988.90999545157,-2587.873734293622,-40.00543150271551
-4988.90999545157,-1870.8314338626806,-38.00543150271551
-4988.90999545157,-1153.7891334316228,-1.0054315027155099
-4988.90999545157,-436.74683300068136,33.99456849728449
-4988.90999545157,280.29546743037645,49.99456849728449
-4988.90999545157,997.3377678603865,60.99456849728449
-4988.90999545157,1714.380068291328,45.99456849728449
-4988.90999545157,2431.504428953398,18.99456849728449
-4988.90999545157,3148.5467293843394,-10.00543150271551
-4988.90999545157,3865.589029815397,-13.00543150271551
-4988.90999545157,4582.631330246339,-5.00543150271551
-4988.90999545157,5299.673630676349,23.99456849728449
-4988.90999545157,6016.7159311074065,10.99456849728449
-4988.90999545157,6733.758231538348,29.99456849728449
-4988.90999545157,7450.882592200302,58.99456849728449
-4988.90999545157,8167.924892631359,53.99456849728449
-4988.90999545157,8884.96719306137,68.99456849728449
-4988.90999545157,9602.00949349231,70.99456849728449
-4988.90999545157,10319.051793923369,94.99456849728449
-4988.90999545157,11036.09409435431,115.99456849728449
-4988.90999545157,11753.13639478432,101.99456849728449
-5916.350180990994,-49295.84129875968,-51.00543150271551
-5916.350180990994,-48578.71342587564,-66.00543150271551
-5916.350180990994,-47861.58555299265,-78.00543150271551
-5916.350180990994,-47144.45768010861,-60.00543150271551
-5916.350180990994,-24913.083270594594,-81.00543150271551
-5916.350180990994,-24195.95539771067,-76.00543150271551
-5916.350180990994,-23478.82752482663,-73.00543150271551
-5916.350180990994,-22761.699651943636,-78.00543150271551
-5916.350180990994,-22044.571779059595,-81.00543150271551
-5916.350180990994,-19175.97821750061,-78.00543150271551
-5916.350180990994,-18458.85034461762,-65.00543150271551
-5916.350180990994,-17741.722471733694,-54.00543150271551
-5916.350180990994,-17024.594598849653,-40.00543150271551
-5916.350180990994,-16307.46672596666,-46.00543150271551
-5916.350180990994,-15590.33885308262,-43.00543150271551
-5916.350180990994,-14873.210980198695,-30.00543150271551
-5916.350180990994,-14156.001037290669,-25.00543150271551
-5916.350180990994,-13438.873164407676,-29.00543150271551
-5916.350180990994,-12721.745291523635,-27.00543150271551
-5916.350180990994,-12004.617418639595,7.99456849728449
-5916.350180990994,-11287.489545756602,-6.00543150271551
-5916.350180990994,-10570.361672872677,-32.00543150271551
-5916.350180990994,-9853.233799989684,-40.00543150271551
-5916.350180990994,-9136.105927105644,-50.00543150271551
-5916.350180990994,-8418.895984197618,-59.00543150271551
-5916.350180990994,-7701.768111313693,-73.00543150271551
-5916.350180990994,-6984.6402384307,-78.00543150271551
-5916.350180990994,-6267.51236554666,-61.00543150271551
-5916.350180990994,-5550.384492662619,-68.00543150271551
-5916.350180990994,-4833.256619779626,-71.00543150271551
-5916.350180990994,-4116.128746895702,-55.00543150271551
-5916.350180990994,-3398.9188039876753,-61.00543150271551
-5916.350180990994,-2681.7909311036346,-61.00543150271551
-5916.350180990994,-1964.6630582206417,-37.00543150271551
-5916.350180990994,-1247.535185336601,9.99456849728449
-5916.350180990994,-530.407312453608,43.99456849728449
-5916.350180990994,186.72056043031625,40.99456849728449
-5916.350180990994,903.848433314357,30.99456849728449
-5916.350180990994,1620.97630619735,25.99456849728449
-5916.350180990994,2338.186249105376,34.99456849728449
-5916.350180990994,3055.3141219893005,29.99456849728449
-5916.350180990994,3772.441994873341,10.99456849728449
-5916.350180990994,4489.569867756334,-4.00543150271551
-5916.350180990994,5206.697740640375,9.99456849728449
-5916.350180990994,5923.825613523368,27.99456849728449
-5916.350180990994,6640.9534864074085,52.99456849728449
-5916.350180990994,7358.163429315318,66.99456849728449
-5916.350180990994,8075.291302199359,67.99456849728449
-5916.350180990994,8792.419175082352,71.99456849728449
-5916.350180990994,9509.547047966393,73.99456849728449
-5916.350180990994,10226.674920850317,107.99456849728449
-5916.350180990994,10943.80279373331,96.99456849728449
-5916.350180990994,11660.93066661735,87.99456849728449
-6844.215018641204,-49395.34870333865,-50.00543150271551
-6844.215018641204,-48678.13523399364,-38.00543150271551
-6844.215018641204,-47960.921764648636,-42.00543150271551
-6844.215018641204,-47243.70829530363,-54.00543150271551
-6844.215018641204,-25009.680346510606,-64.00543150271551
-6844.215018641204,-24292.4668771656,-60.00543150271551
-6844.215018641204,-23575.253407820594,-64.00543150271551
-6844.215018641204,-22858.039938475704,-75.00543150271551
-6844.215018641204,-22140.82646913163,-79.00543150271551
-6844.215018641204,-21423.612999786623,-81.00543150271551
-6844.215018641204,-20706.399530441617,-81.00543150271551
-6844.215018641204,-19989.18606109661,-78.00543150271551
-6844.215018641204,-19271.89051193162,-76.00543150271551
-6844.215018641204,-18554.677042586613,-72.00543150271551
-6844.215018641204,-17837.463573241606,-63.00543150271551
-6844.215018641204,-17120.2501038966,-49.00543150271551
-6844.215018641204,-16403.036634551594,-30.00543150271551
-6844.215018641204,-15685.823165206704,-21.00543150271551
-6844.215018641204,-14968.609695861698,-11.00543150271551
-6844.215018641204,-14251.31414669659,-10.00543150271551
-6844.215018641204,-13534.1006773517,-23.00543150271551
-6844.215018641204,-12816.887208006694,-24.00543150271551
-6844.215018641204,-12099.67373866262,-5.00543150271551
-6844.215018641204,-11382.460269317613,1.9945684972844901
-6844.215018641204,-10665.246799972607,2.99456849728449
-6844.215018641204,-9948.0333306276,-14.00543150271551
-6844.215018641204,-9230.819861282595,-21.00543150271551
-6844.215018641204,-8513.524312117603,-47.00543150271551
-6844.215018641204,-7796.3108427725965,-39.00543150271551
-6844.215018641204,-7079.09737342759,-70.00543150271551
-6844.215018641204,-6361.883904082701,-41.00543150271551
-6844.215018641204,-5644.670434737694,-1.0054315027155099
-6844.215018641204,-4927.456965392688,-70.00543150271551
-6844.215018641204,-4210.243496047682,-67.00543150271551
-6844.215018641204,-3492.9479468826903,-59.00543150271551
-6844.215018641204,-2775.734477537684,-67.00543150271551
-6844.215018641204,-2058.5210081936093,-36.00543150271551
-6844.215018641204,-1341.3075388486031,-25.00543150271551
-6844.215018641204,-624.094069503597,-2.00543150271551
-6844.215018641204,93.11939984140918,-12.00543150271551
-6844.215018641204,810.3328691862989,-6.00543150271551
-6844.215018641204,1527.546338531305,-15.00543150271551
-6844.215018641204,2244.841887696297,4.99456849728449
-6844.215018641204,2962.055357041303,25.99456849728449
-6844.215018641204,3679.2688263863092,26.99456849728449
-6844.215018641204,4396.482295731315,9.99456849728449
-6844.215018641204,5113.695765076322,17.99456849728449
-6844.215018641204,5830.909234421328,43.99456849728449
-6844.215018641204,6548.122703766334,31.99456849728449
-6844.215018641204,7265.418252931326,49.99456849728449
-6844.215018641204,7982.631722276332,66.99456849728449
-6844.215018641204,8699.845191621338,85.99456849728449
-6844.215018641204,9417.058660965296,90.99456849728449
-6844.215018641204,10134.272130310303,105.99456849728449
-6844.215018641204,10851.485599655309,96.99456849728449
-6844.215018641204,11568.699069000315,76.99456849728449
-7771.655204190873,-48777.493922251626,-73.00543150271551
-7771.655204190873,-48060.19491078763,-74.00543150271551
-7771.655204190873,-25106.216095903656,-80.00543150271551
-7771.655204190873,-24388.917084439658,-72.00543150271551
-7771.655204190873,-23671.61807297659,-71.00543150271551
-7771.655204190873,-22954.319061512593,-77.00543150271551
-7771.655204190873,-22237.020050048595,-81.00543150271551
-7771.655204190873,-21519.721038585645,-78.00543150271551
-7771.655204190873,-20802.422027121647,-78.00543150271551
-7771.655204190873,-20085.123015658697,-78.00543150271551
-7771.655204190873,-19367.74191458465,-79.00543150271551
-7771.655204190873,-18650.4429031217,-73.00543150271551
-7771.655204190873,-17933.143891657703,-64.00543150271551
-7771.655204190873,-17215.844880193705,-61.00543150271551
-7771.655204190873,-16498.545868730638,-51.00543150271551
-7771.655204190873,-15781.24685726664,-32.00543150271551
-7771.655204190873,-15063.94784580369,0.9945684972844901
-7771.655204190873,-14346.566744729644,8.99456849728449
-7771.655204190873,-13629.267733265646,-8.00543150271551
-7771.655204190873,-12911.968721802696,-10.00543150271551
-7771.655204190873,-12194.669710338698,9.99456849728449
-7771.655204190873,-11477.370698875631,27.99456849728449
-7771.655204190873,-10760.071687411633,32.99456849728449
-7771.655204190873,-10042.772675948683,-19.00543150271551
-7771.655204190873,-9325.473664484685,-5.00543150271551
-7771.655204190873,-8608.092563410639,-16.00543150271551
-7771.655204190873,-7890.793551947689,-23.00543150271551
-7771.655204190873,-7173.494540483691,-62.00543150271551
-7771.655204190873,-6456.195529020624,-9.00543150271551
-7771.655204190873,-5738.896517556626,-6.00543150271551
-7771.655204190873,-5021.597506093676,-53.00543150271551
-7771.655204190873,-4304.298494629678,-51.00543150271551
-7771.655204190873,-3586.917393555632,-24.00543150271551
-7771.655204190873,-2869.6183820926817,-1.0054315027155099
-7771.655204190873,-2152.319370628684,12.99456849728449
-7771.655204190873,-1435.0203591656173,-6.00543150271551
-7771.655204190873,-717.7213477016194,-31.00543150271551
-7771.655204190873,-0.42233623866923153,-38.00543150271551
-7771.655204190873,716.8766752253287,-33.00543150271551
-7771.655204190873,1434.1756866893265,-33.00543150271551
-7771.655204190873,2151.5567877623253,-25.00543150271551
-7771.655204190873,2868.855799226323,-21.00543150271551
-7771.655204190873,3586.1548106893897,-7.00543150271551
-7771.655204190873,4303.453822153388,32.99456849728449
-7771.655204190873,5020.752833616338,24.99456849728449
-7771.655204190873,5738.051845080336,38.99456849728449
-7771.655204190873,6455.3508565443335,63.99456849728449
-7771.655204190873,7172.731957617332,50.99456849728449
-7771.655204190873,7890.03096908133,55.99456849728449
-7771.655204190873,8607.329980544397,65.99456849728449
-7771.655204190873,9324.628992008395,74.99456849728449
-7771.655204190873,10041.928003472392,68.99456849728449
-7771.655204190873,10759.227014935343,90.99456849728449
-7771.655204190873,11476.52602639934,74.99456849728449
-8699.520041830838,-21615.8560315636,-79.00543150271551
-8699.520041830838,-20898.47145399067,-76.00543150271551
-8699.520041830838,-20181.086876417627,-75.00543150271551
-8699.520041830838,-19463.62019944261,-69.00543150271551
-8699.520041830838,-18746.235621868633,-71.00543150271551
-8699.520041830838,-18028.851044295705,-64.00543150271551
-8699.520041830838,-17311.46646672266,-50.00543150271551
-8699.520041830838,-16594.081889149616,-41.00543150271551
-8699.520041830838,-15876.697311576689,-35.00543150271551
-8699.520041830838,-15159.312734003644,10.99456849728449
-8699.520041830838,-14441.846057027695,23.99456849728449
-8699.520041830838,-13724.46147945465,14.99456849728449
-8699.520041830838,-13007.076901881606,12.99456849728449
-8699.520041830838,-12289.69232430763,21.99456849728449
-8699.520041830838,-11572.307746734703,32.99456849728449
-8699.520041830838,-10854.923169161659,7.99456849728449
-8699.520041830838,-10137.538591588615,-27.00543150271551
-8699.520041830838,-9420.154014015687,-34.00543150271551
-8699.520041830838,-8702.68733703962,-27.00543150271551
-8699.520041830838,-7985.302759466693,-33.00543150271551
-8699.520041830838,-7267.918181893649,-36.00543150271551
-8699.520041830838,-6550.533604320604,-57.00543150271551
-8699.520041830838,-5833.1490267476765,-46.00543150271551
-8699.520041830838,-5115.764449173701,-43.00543150271551
-8699.520041830838,-4398.379871600657,-11.00543150271551
-8699.520041830838,-3680.9131946256384,33.99456849728449
-8699.520041830838,-2963.528617052594,50.99456849728449
-8699.520041830838,-2246.1440394786187,47.99456849728449
-8699.520041830838,-1528.7594619056908,22.99456849728449
-8699.520041830838,-811.3748843326466,7.99456849728449
-8699.520041830838,-93.99030675960239,-9.00543150271551
-8699.520041830838,623.3942708133254,19.99456849728449
-8699.520041830838,1340.7788483863696,10.99456849728449
-8699.520041830838,2058.2455253623193,-25.00543150271551
-8699.520041830838,2775.6301029353635,-16.00543150271551
-8699.520041830838,3493.0146805084078,-4.00543150271551
-8699.520041830838,4210.399258081336,6.99456849728449
-8699.520041830838,4927.783835655311,53.99456849728449
-8699.520041830838,5645.168413228355,38.99456849728449
-8699.520041830838,6362.5529908014,60.99456849728449
-8699.520041830838,7080.0196677763015,53.99456849728449
-8699.520041830838,7797.4042453503935,74.99456849728449
-8699.520041830838,8514.788822923321,88.99456849728449
-8699.520041830838,9232.173400496366,69.99456849728449
-8699.520041830838,9949.55797806941,52.99456849728449
-8699.520041830838,10666.942555642338,59.99456849728449
-8699.520041830838,11384.327133215382,54.99456849728449
-9626.960227381438,-21711.929981272668,-81.00543150271551
-9626.960227381438,-20994.459891921608,-73.00543150271551
-9626.960227381438,-20276.989802571596,-70.00543150271551
-9626.960227381438,-19559.43760403269,-59.00543150271551
-9626.960227381438,-18841.96751468163,-51.00543150271551
-9626.960227381438,-18124.497425331618,-53.00543150271551
-9626.960227381438,-17407.027335980674,-36.00543150271551
-9626.960227381438,-16689.557246630662,-23.00543150271551
-9626.960227381438,-15972.08715728065,-9.00543150271551
-9626.960227381438,-15254.61706792959,-11.00543150271551
-9626.960227381438,-14537.064869390684,8.99456849728449
-9626.960227381438,-13819.594780040672,22.99456849728449
-9626.960227381438,-13102.124690689612,32.99456849728449
-9626.960227381438,-12384.6546013396,43.99456849728449
-9626.960227381438,-11667.184511988657,21.99456849728449
-9626.960227381438,-10949.714422638644,-3.00543150271551
-9626.960227381438,-10232.244333287701,-44.00543150271551
-9626.960227381438,-9514.774243937689,-54.00543150271551
-9626.960227381438,-8797.222045398667,-60.00543150271551
-9626.960227381438,-8079.751956048654,-68.00543150271551
-9626.960227381438,-7362.2818666975945,-74.00543150271551
-9626.960227381438,-6644.811777347699,-74.00543150271551
-9626.960227381438,-5927.341687996639,-56.00543150271551
-9626.960227381438,-5209.871598646627,0.9945684972844901
-9626.960227381438,-4492.401509295683,57.99456849728449
-9626.960227381438,-3774.849310756661,66.99456849728449
-9626.960227381438,-3057.379221406649,94.99456849728449
-9626.960227381438,-2339.909132055589,58.99456849728449
-9626.960227381438,-1622.4390427056933,1.9945684972844901
-9626.960227381438,-904.9689533546334,21.99456849728449
-9626.960227381438,-187.49886400462128,43.99456849728449
-9626.960227381438,529.9712253453908,33.99456849728449
-9626.960227381438,1247.4413146963343,49.99456849728449
-9626.960227381438,1964.9935132353567,-8.00543150271551
-9626.960227381438,2682.463602585369,7.99456849728449
-9626.960227381438,3399.9336919363122,34.99456849728449
-9626.960227381438,4117.403781286324,11.99456849728449
-9626.960227381438,4834.873870637384,21.99456849728449
-9626.960227381438,5552.343959987396,55.99456849728449
-9626.960227381438,6269.81404933834,62.99456849728449
-9626.960227381438,6987.366247877362,81.99456849728449
-9626.960227381438,7704.836337227374,77.99456849728449
-9626.960227381438,8422.306426577386,94.99456849728449
-9626.960227381438,9139.77651592833,58.99456849728449
-9626.960227381438,9857.246605278342,51.99456849728449
-9626.960227381438,10574.716694629402,75.99456849728449
-9626.960227381438,11292.186783979298,72.99456849728449
-10554.825065031648,-21090.475240383646,-70.00543150271551
-10554.825065031648,-20372.919615282677,-64.00543150271551
-10554.825065031648,-19655.281871204614,-54.00543150271551
-10554.825065031648,-18937.726246102597,-44.00543150271551
-10554.825065031648,-18220.170621001627,-29.00543150271551
-10554.825065031648,-17502.614995900658,-37.00543150271551
-10554.825065031648,-16785.05937079969,-25.00543150271551
-10554.825065031648,-16067.503745698603,-14.00543150271551
-10554.825065031648,-15349.948120597634,8.99456849728449
-10554.825065031648,-14632.310376518639,27.99456849728449
-10554.825065031648,-13914.75475141767,43.99456849728449
-10554.825065031648,-13197.1991263167,41.99456849728449
-10554.825065031648,-12479.643501215614,47.99456849728449
-10554.825065031648,-11762.087876114645,27.99456849728449
-10554.825065031648,-11044.532251013676,-26.00543150271551
-10554.825065031648,-10326.976625911659,-43.00543150271551
-10554.825065031648,-9609.42100081069,-52.00543150271551
-10554.825065031648,-8891.783256732626,-57.00543150271551
-10554.825065031648,-8174.227631631657,-69.00543150271551
-10554.825065031648,-7456.672006530687,-63.00543150271551
-10554.825065031648,-6739.11638142867,-68.00543150271551
-10554.825065031648,-6021.560756327701,-52.00543150271551
-10554.825065031648,-5304.005131226615,21.99456849728449
-10554.825065031648,-4586.449506125646,75.99456849728449
-10554.825065031648,-3868.811762046651,99.99456849728449
-10554.825065031648,-3151.2561369456816,99.99456849728449
-10554.825065031648,-2433.700511844596,41.99456849728449
-10554.825065031648,-1716.1448867436266,23.99456849728449
-10554.825065031648,-998.5892616426572,40.99456849728449
-10554.825065031648,-281.0336365416879,57.99456849728449
-10554.825065031648,436.52198855939787,65.99456849728449
-10554.825065031648,1154.0776136603672,32.99456849728449
-10554.825065031648,1871.715357739362,-10.00543150271551
-10554.825065031648,2589.2709828403313,34.99456849728449
-10554.825065031648,3306.8266079413006,30.99456849728449
-10554.825065031648,4024.3822330423864,54.99456849728449
-10554.825065031648,4741.937858143356,-11.00543150271551
-10554.825065031648,5459.493483245373,14.99456849728449
-10554.825065031648,6177.049108346342,55.99456849728449
-10554.825065031648,6894.6868524244055,43.99456849728449
-10554.825065031648,7612.242477525375,29.99456849728449
-10554.825065031648,8329.798102626344,45.99456849728449
-10554.825065031648,9047.353727728361,44.99456849728449
-10554.825065031648,9764.90935282933,60.99456849728449
-10554.825065031648,10482.4649779303,72.99456849728449
-10554.825065031648,11200.020603031386,82.99456849728449
-11482.265250571072,-21186.42961144366,-69.00543150271551
-11482.265250571072,-20468.788504914613,-54.00543150271551
-11482.265250571072,-19751.06526962365,-41.00543150271551
-11482.265250571072,-19033.424163094605,-32.00543150271551
-11482.265250571072,-18315.78305656463,-16.00543150271551
-11482.265250571072,-17598.141950034653,-21.00543150271551
-11482.265250571072,-16880.500843505608,-30.00543150271551
-11482.265250571072,-16162.859736975632,-24.00543150271551
-11482.265250571072,-15445.218630445655,-7.00543150271551
-11482.265250571072,-14727.495395155624,21.99456849728449
-11482.265250571072,-14009.854288625647,39.99456849728449
-11482.265250571072,-13292.213182095671,61.99456849728449
-11482.265250571072,-12574.572075566626,69.99456849728449
-11482.265250571072,-11856.93096903665,49.99456849728449
-11482.265250571072,-11139.289862506674,27.99456849728449
-11482.265250571072,-10421.648755976697,-8.00543150271551
-11482.265250571072,-9704.007649447653,-45.00543150271551
-11482.265250571072,-8986.28441415762,-54.00543150271551
-11482.265250571072,-8268.643307627644,-61.00543150271551
-11482.265250571072,-7551.002201097668,-58.00543150271551
-11482.265250571072,-6833.361094567692,-63.00543150271551
-11482.265250571072,-6115.719988038647,-58.00543150271551
-11482.265250571072,-5398.078881508671,25.99456849728449
-11482.265250571072,-4680.4377749786945,68.99456849728449
-11482.265250571072,-3962.7145396886626,91.99456849728449
-11482.265250571072,-3245.0734331586864,78.99456849728449
-11482.265250571072,-2527.4323266296415,86.99456849728449
-11482.265250571072,-1809.7912200996652,66.99456849728449
-11482.265250571072,-1092.150113569689,65.99456849728449
-11482.265250571072,-374.5090070395963,78.99456849728449
-11482.265250571072,343.1320994893322,49.99456849728449
-11482.265250571072,1060.7732060193084,22.99456849728449
-11482.265250571072,1778.4964413093403,6.99456849728449
-11482.265250571072,2496.1375478393165,13.99456849728449
-11482.265250571072,3213.778654369409,40.99456849728449
-11482.265250571072,3931.4197608983377,51.99456849728449
-11482.265250571072,4649.060867428314,-16.00543150271551
-11482.265250571072,5366.701973958407,-16.00543150271551
-11482.265250571072,6084.343080488383,3.99456849728449
-11482.265250571072,6802.066315778298,24.99456849728449
-11482.265250571072,7519.707422307343,7.99456849728449
-11482.265250571072,8237.34852883732,22.99456849728449
-11482.265250571072,8954.989635367296,25.99456849728449
-11482.265250571072,9672.630741897388,52.99456849728449
-11482.265250571072,10390.271848426317,76.99456849728449
-11482.265250571072,11107.91295495641,88.99456849728449
-12410.130088221282,-20564.684261460672,-58.00543150271551
-12410.130088221282,-19846.87551100063,-29.00543150271551
-12410.130088221282,-19129.148899085703,-13.00543150271551
-12410.130088221282,-18411.42228717159,-4.00543150271551
-12410.130088221282,-17693.695675257593,0.9945684972844901
-12410.130088221282,-16975.969063342665,-7.00543150271551
-12410.130088221282,-16258.242451428669,-29.00543150271551
-12410.130088221282,-15540.515839514672,-26.00543150271551
-12410.130088221282,-14822.707089054631,9.99456849728449
-12410.130088221282,-14104.980477140634,60.99456849728449
-12410.130088221282,-13387.253865226638,64.99456849728449
-12410.130088221282,-12669.527253311593,67.99456849728449
-12410.130088221282,-11951.800641397596,57.99456849728449
-12410.130088221282,-11234.0740294836,53.99456849728449
-12410.130088221282,-10516.347417568672,10.99456849728449
-12410.130088221282,-9798.620805654675,-36.00543150271551
-12410.130088221282,-9080.812055194634,-52.00543150271551
-12410.130088221282,-8363.085443280637,-51.00543150271551
-12410.130088221282,-7645.3588313666405,-45.00543150271551
-12410.130088221282,-6927.632219451596,-48.00543150271551
-12410.130088221282,-6209.905607537599,-54.00543150271551
-12410.130088221282,-5492.1789956236025,1.9945684972844901
-12410.130088221282,-4774.452383709606,46.99456849728449
-12410.130088221282,-4056.6436332496814,47.99456849728449
-12410.130088221282,-3338.917021334637,72.99456849728449
-12410.130088221282,-2621.19040942064,99.99456849728449
-12410.130088221282,-1903.4637975066435,97.99456849728449
-12410.130088221282,-1185.7371855926467,86.99456849728449
-12410.130088221282,-468.0105736776022,70.99456849728449
-12410.130088221282,249.71603823639452,47.99456849728449
-12410.130088221282,967.4426501503913,31.99456849728449
-12410.130088221282,1685.2514006103156,22.99456849728449
-12410.130088221282,2402.9780125243124,-0.0054315027155098505
-12410.130088221282,3120.704624439357,30.99456849728449
-12410.130088221282,3838.4312363533536,55.99456849728449
-12410.130088221282,4556.15784826735,-9.00543150271551
-12410.130088221282,5273.884460181347,0.9945684972844901
-12410.130088221282,5991.611072096392,-7.00543150271551
-12410.130088221282,6709.419822556316,-9.00543150271551
-12410.130088221282,7427.146434470313,7.99456849728449
-12410.130088221282,8144.873046384309,13.99456849728449
-12410.130088221282,8862.599658299354,24.99456849728449
-12410.130088221282,9580.32627021335,57.99456849728449
-12410.130088221282,10298.052882127347,88.99456849728449
-12410.130088221282,11015.779494041344,73.99456849728449
-13337.994925871491,-20660.562982982607,-63.00543150271551
-13337.994925871491,-19942.668732543592,-17.00543150271551
-13337.994925871491,-19224.8566304337,1.9945684972844901
-13337.994925871491,-18507.044528324623,12.99456849728449
-13337.994925871491,-17789.232426214614,20.99456849728449
-13337.994925871491,-17071.420324105653,14.99456849728449
-13337.994925871491,-16353.608221995644,-16.00543150271551
-13337.994925871491,-15635.796119886683,-28.00543150271551
-13337.994925871491,-14917.901869447669,9.99456849728449
-13337.994925871491,-14200.08976733766,47.99456849728449
-13337.994925871491,-13482.2776652287,56.99456849728449
-13337.994925871491,-12764.46556311869,65.99456849728449
-13337.994925871491,-12046.653461009613,66.99456849728449
-13337.994925871491,-11328.841358899605,67.99456849728449
-13337.994925871491,-10611.029256790644,54.99456849728449
-13337.994925871491,-9893.217154680635,41.99456849728449
-13337.994925871491,-9175.32290424162,19.99456849728449
-13337.994925871491,-8457.51080213266,8.99456849728449
-13337.994925871491,-7739.698700022651,-34.00543150271551
-13337.994925871491,-7021.88659791369,-47.00543150271551
-13337.994925871491,-6304.074495803681,-19.00543150271551
-13337.994925871491,-5586.262393694604,-46.00543150271551
-13337.994925871491,-4868.450291584595,-35.00543150271551
-13337.994925871491,-4150.556041145697,2.99456849728449
-13337.994925871491,-3432.74393903662,45.99456849728449
-13337.994925871491,-2714.931836926611,50.99456849728449
-13337.994925871491,-1997.1197348176502,60.99456849728449
-13337.994925871491,-1279.3076327076415,49.99456849728449
-13337.994925871491,-561.4955305986805,72.99456849728449
-13337.994925871491,156.31657151132822,71.99456849728449
-13337.994925871491,874.1286736204056,28.99456849728449
-13337.994925871491,1592.0229240593035,30.99456849728449
-13337.994925871491,2309.835026169312,18.99456849728449
-13337.994925871491,3027.6471282783896,31.99456849728449
-13337.994925871491,3745.4592303883983,47.99456849728449
-13337.994925871491,4463.271332497359,-7.00543150271551
-13337.994925871491,5181.083434607368,16.99456849728449
-13337.994925871491,5898.895536716329,17.99456849728449
-13337.994925871491,6616.789787155343,7.99456849728449
-13337.994925871491,7334.601889265352,3.99456849728449
-13337.994925871491,8052.413991374313,28.99456849728449
-13337.994925871491,8770.226093484322,63.99456849728449
-13337.994925871491,9488.038195593399,79.99456849728449
-13337.994925871491,10205.850297703408,79.99456849728449
-13337.994925871491,10923.662399812369,53.99456849728449
-14265.435111410916,-20756.380798723665,-80.00543150271551
-14265.435111410916,-20038.401102618664,-38.00543150271551
-14265.435111410916,-19320.503564620623,-15.00543150271551
-14265.435111410916,-18602.6060266227,6.99456849728449
-14265.435111410916,-17884.70848862466,32.99456849728449
-14265.435111410916,-17166.81095062662,24.99456849728449
-14265.435111410916,-16448.913412627648,-19.00543150271551
-14265.435111410916,-15731.015874629607,-26.00543150271551
-14265.435111410916,-15013.036178524606,-10.00543150271551
-14265.435111410916,-14295.138640526682,32.99456849728449
-14265.435111410916,-13577.241102528642,63.99456849728449
-14265.435111410916,-12859.343564530602,60.99456849728449
-14265.435111410916,-12141.446026532678,65.99456849728449
-14265.435111410916,-11423.548488534638,67.99456849728449
-14265.435111410916,-10705.650950535666,57.99456849728449
-14265.435111410916,-9987.753412537626,50.99456849728449
-14265.435111410916,-9269.773716432624,60.99456849728449
-14265.435111410916,-8551.8761784347,50.99456849728449
-14265.435111410916,-7833.9786404366605,35.99456849728449
-14265.435111410916,-7116.08110243862,1.9945684972844901
-14265.435111410916,-6398.1835644406965,21.99456849728449
-14265.435111410916,-5680.286026441609,-21.00543150271551
-14265.435111410916,-4962.388488443685,-55.00543150271551
-14265.435111410916,-4244.408792338683,-39.00543150271551
-14265.435111410916,-3526.511254340643,-12.00543150271551
-14265.435111410916,-2808.613716342603,12.99456849728449
-14265.435111410916,-2090.716178344679,12.99456849728449
-14265.435111410916,-1372.8186403466389,24.99456849728449
-14265.435111410916,-654.9211023476673,42.99456849728449
-14265.435111410916,62.97643565037288,57.99456849728449
-14265.435111410916,780.8739736482967,56.99456849728449
-14265.435111410916,1498.8536697532982,47.99456849728449
-14265.435111410916,2216.7512077513384,32.99456849728449
-14265.435111410916,2934.6487457493786,49.99456849728449
-14265.435111410916,3652.5462837473024,48.99456849728449
-14265.435111410916,4370.44382174639,14.99456849728449
-14265.435111410916,5088.341359744314,-5.00543150271551
-14265.435111410916,5806.238897742354,20.99456849728449
-14265.435111410916,6524.218593847356,84.99456849728449
-14265.435111410916,7242.116131845396,102.99456849728449
-14265.435111410916,7960.01366984332,145.9945684972845
-14265.435111410916,8677.91120784136,105.99456849728449
-14265.435111410916,9395.808745840332,90.99456849728449
-14265.435111410916,10113.706283838372,87.99456849728449
-14265.435111410916,10831.603821836296,58.99456849728449
-15193.299949061126,-20134.160286206636,-49.00543150271551
-15193.299949061126,-19416.17728838965,-22.00543150271551
-15193.299949061126,-18698.194290573592,-3.00543150271551
-15193.299949061126,-17980.211292757653,8.99456849728449
-15193.299949061126,-17262.228294940665,28.99456849728449
-15193.299949061126,-16544.24529712461,-12.00543150271551
-15193.299949061126,-15826.262299307622,-19.00543150271551
-15193.299949061126,-15108.19713360467,0.9945684972844901
-15193.299949061126,-14390.214135788614,40.99456849728449
-15193.299949061126,-13672.231137971627,51.99456849728449
-15193.299949061126,-12954.248140155687,51.99456849728449
-15193.299949061126,-12236.2651423387,59.99456849728449
-15193.299949061126,-11518.282144522644,74.99456849728449
-15193.299949061126,-10800.299146706704,69.99456849728449
-15193.299949061126,-10082.3161488896,58.99456849728449
-15193.299949061126,-9364.250983186648,59.99456849728449
-15193.299949061126,-8646.26798536966,50.99456849728449
-15193.299949061126,-7928.284987553605,16.99456849728449
-15193.299949061126,-7210.301989737665,19.99456849728449
-15193.299949061126,-6492.318991920678,0.9945684972844901
-15193.299949061126,-5774.335994104622,-37.00543150271551
-15193.299949061126,-5056.352996287635,-53.00543150271551
-15193.299949061126,-4338.2878305846825,-44.00543150271551
-15193.299949061126,-3620.304832767695,-38.00543150271551
-15193.299949061126,-2902.321834951639,-22.00543150271551
-15193.299949061126,-2184.3388371356996,-18.00543150271551
-15193.299949061126,-1466.3558393185958,-5.00543150271551
-15193.299949061126,-748.3728415026562,15.99456849728449
-15193.299949061126,-30.389843685668893,31.99456849728449
-15193.299949061126,687.5931541303871,29.99456849728449
-15193.299949061126,1405.6583198333392,24.99456849728449
-15193.299949061126,2123.6413176503265,43.99456849728449
-15193.299949061126,2841.6243154663825,38.99456849728449
-15193.299949061126,3559.60731328337,53.99456849728449
-15193.299949061126,4277.5903110993095,34.99456849728449
-15193.299949061126,4995.5733089153655,3.99456849728449
-15193.299949061126,5713.556306732353,48.99456849728449
-15193.299949061126,6431.621472435305,105.99456849728449
-15193.299949061126,7149.604470252409,49.99456849728449
-15193.299949061126,7867.587468068348,86.99456849728449
-15193.299949061126,8585.570465885336,100.99456849728449
-15193.299949061126,9303.553463701392,56.99456849728449
-15193.299949061126,10021.536461517331,90.99456849728449
-15193.299949061126,10739.519459334319,83.99456849728449
-16120.740134611726,-20229.85862985463,-70.00543150271551
-16120.740134611726,-19511.790226516663,-25.00543150271551
-16120.740134611726,-18793.72182317765,-21.00543150271551
-16120.740134611726,-18075.653419839684,-27.00543150271551
-16120.740134611726,-17357.5850165016,10.99456849728449
-16120.740134611726,-16639.516613163636,11.99456849728449
-16120.740134611726,-15921.448209824623,-7.00543150271551
-16120.740134611726,-15203.297628825647,25.99456849728449
-16120.740134611726,-14485.229225486633,53.99456849728449
-16120.740134611726,-13767.160822148668,55.99456849728449
-16120.740134611726,-13049.092418810702,59.99456849728449
-16120.740134611726,-12331.024015471688,63.99456849728449
-16120.740134611726,-11612.955612133606,72.99456849728449
-16120.740134611726,-10894.88720879564,80.99456849728449
-16120.740134611726,-10176.818805456627,64.99456849728449
-16120.740134611726,-9458.668224457651,54.99456849728449
-16120.740134611726,-8740.599821119686,29.99456849728449
-16120.740134611726,-8022.531417780672,11.99456849728449
-16120.740134611726,-7304.46301444259,13.99456849728449
-16120.740134611726,-6586.394611104624,-27.00543150271551
-16120.740134611726,-5868.326207765611,-43.00543150271551
-16120.740134611726,-5150.257804427645,-56.00543150271551
-16120.740134611726,-4432.107223428669,-34.00543150271551
-16120.740134611726,-3714.038820089656,-41.00543150271551
-16120.740134611726,-2995.97041675169,-40.00543150271551
-16120.740134611726,-2277.902013413608,-37.00543150271551
-16120.740134611726,-1559.8336100745946,-19.00543150271551
-16120.740134611726,-841.7652067366289,-13.00543150271551
-16120.740134611726,-123.69680339866318,5.99456849728449
-16120.740134611726,594.3715999403503,-4.00543150271551
-16120.740134611726,1312.522180939326,15.99456849728449
-16120.740134611726,2030.5905842774082,17.99456849728449
-16120.740134611726,2748.6589876163052,23.99456849728449
-16120.740134611726,3466.7273909543874,52.99456849728449
-16120.740134611726,4184.795794292353,42.99456849728449
-16120.740134611726,4902.864197631367,14.99456849728449
-16120.740134611726,5620.932600969332,3.99456849728449
-16120.740134611726,6339.083181968308,14.99456849728449
-16120.740134611726,7057.1515853073215,14.99456849728449
-16120.740134611726,7775.219988645404,29.99456849728449
-16120.740134611726,8493.28839198337,43.99456849728449
-16120.740134611726,9211.356795322383,37.99456849728449
-16120.740134611726,9929.425198660349,67.99456849728449
-16120.740134611726,10647.493601998314,75.99456849728449
-17048.60497225169,-20325.58376738464,-73.00543150271551
-17048.60497225169,-19607.42993461166,-46.00543150271551
-17048.60497225169,-18889.276101839612,-53.00543150271551
-17048.60497225169,-18171.12226906768,-46.00543150271551
-17048.60497225169,-17452.9684362947,-11.00543150271551
-17048.60497225169,-16734.814603522653,22.99456849728449
-17048.60497225169,-16016.660770750605,8.99456849728449
-17048.60497225169,-15298.424750540638,27.99456849728449
-17048.60497225169,-14580.270917767659,54.99456849728449
-17048.60497225169,-13862.11708499561,72.99456849728449
-17048.60497225169,-13143.963252223679,78.99456849728449
-17048.60497225169,-12425.8094194507,93.99456849728449
-17048.60497225169,-11707.655586678651,92.99456849728449
-17048.60497225169,-10989.501753906603,71.99456849728449
-17048.60497225169,-10271.347921133623,55.99456849728449
-17048.60497225169,-9553.111900923657,60.99456849728449
-17048.60497225169,-8834.958068151609,42.99456849728449
-17048.60497225169,-8116.804235379677,22.99456849728449
-17048.60497225169,-7398.650402606698,8.99456849728449
-17048.60497225169,-6680.49656983465,-21.00543150271551
-17048.60497225169,-5962.342737062601,-41.00543150271551
-17048.60497225169,-5244.188904289622,-37.00543150271551
-17048.60497225169,-4525.952884079656,-50.00543150271551
-17048.60497225169,-3807.7990513076074,-47.00543150271551
-17048.60497225169,-3089.645218534628,-26.00543150271551
-17048.60497225169,-2371.491385762696,-13.00543150271551
-17048.60497225169,-1653.337552990648,-16.00543150271551
