X,Y,Z
39.45416641235348,-9.23750019073486,-0.00032
39.45416641235348,-9.229166984558098,-0.00025
39.45416641235348,-9.220833778381348,-6e-05
39.445835113525426,-9.870833396911626,-0.02574
39.445835113525426,-9.862500190734869,-0.0249
39.445835113525426,-9.854166984558113,-0.02436
39.445835113525426,-9.845833778381355,-0.02392
39.445835113525426,-9.837499618530272,-0.02353
39.445835113525426,-9.829166412353516,-0.02217
39.445835113525426,-9.820833206176758,-0.02071
39.445835113525426,-9.812500000000002,-0.02162
39.445835113525426,-9.804166793823244,-0.02166
39.445835113525426,-9.795833587646486,-0.01996
39.445835113525426,-9.78750038146973,-0.01846
39.445835113525426,-9.779166221618658,-0.01679
39.445835113525426,-9.7708330154419,-0.0157
39.445835113525426,-9.762499809265144,-0.01733
39.445835113525426,-9.754166603088386,-0.02089
39.445835113525426,-9.745833396911628,-0.02159
39.445835113525426,-9.737500190734872,-0.01934
39.445835113525426,-9.729166984558114,-0.01747
39.445835113525426,-9.720833778381358,-0.01777
39.445835113525426,-9.712499618530275,-0.01912
39.445835113525426,-9.704166412353517,-0.01889
39.445835113525426,-9.695833206176761,-0.01725
39.445835113525426,-9.687500000000002,-0.01543
39.445835113525426,-9.679166793823246,-0.01323
39.445835113525426,-9.670833587646488,-0.01056
39.445835113525426,-9.66250038146973,-0.00835
39.445835113525426,-9.65416622161866,-0.00634
39.445835113525426,-9.645833015441903,-0.00399
39.445835113525426,-9.637499809265146,-0.00243
39.445835113525426,-9.629166603088388,-0.00178
39.445835113525426,-9.620833396911632,-0.00111
39.445835113525426,-9.612500190734862,-0.00075
39.445835113525426,-9.604166984558105,-0.0009
39.445835113525426,-9.595833778381348,-0.00102
39.445835113525426,-9.587499618530275,-0.00102
39.445835113525426,-9.57916641235352,-0.00101
39.445835113525426,-9.570833206176761,-0.00101
39.445835113525426,-9.562500000000005,-0.00094
39.445835113525426,-9.554166793823248,-0.00078
39.445835113525426,-9.54583358764649,-0.0006
39.445835113525426,-9.537500381469734,-0.00046
39.445835113525426,-9.529166221618663,-0.00044
39.445835113525426,-9.520833015441905,-0.00052
39.445835113525426,-9.512499809265137,-0.00061
39.445835113525426,-9.504166603088379,-0.00066
39.445835113525426,-9.495833396911621,-0.00067
39.445835113525426,-9.487500190734865,-0.00067
39.445835113525426,-9.479166984558107,-0.00063
39.445835113525426,-9.47083377838135,-0.00059
39.445835113525426,-9.462499618530279,-0.00059
39.445835113525426,-9.454166412353521,-0.00065
39.445835113525426,-9.445833206176765,-0.00077
39.445835113525426,-9.437500000000007,-0.00088
39.445835113525426,-9.42916679382325,-0.00092
39.445835113525426,-9.420833587646493,-0.00093
39.445835113525426,-9.412500381469735,-0.00092
39.445835113525426,-9.404166221618652,-0.0009
39.445835113525426,-9.395833015441896,-0.00087
39.445835113525426,-9.387499809265138,-0.00083
39.445835113525426,-9.37916660308838,-0.0008
39.445835113525426,-9.370833396911623,-0.00077
39.445835113525426,-9.362500190734865,-0.00075
39.445835113525426,-9.354166984558109,-0.00071
39.445835113525426,-9.345833778381351,-0.00067
39.445835113525426,-9.33749961853028,-0.00063
39.445835113525426,-9.329166412353525,-0.0006
39.445835113525426,-9.320833206176767,-0.00058
39.445835113525426,-9.312500000000009,-0.00056
39.445835113525426,-9.304166793823253,-0.00054
39.445835113525426,-9.295833587646493,-0.00052
39.445835113525426,-9.287500381469727,-0.00048
39.445835113525426,-9.279166221618654,-0.00046
39.445835113525426,-9.270833015441896,-0.00043
39.445835113525426,-9.26249980926514,-0.00038
39.445835113525426,-9.254166603088382,-0.00033
39.445835113525426,-9.245833396911625,-0.0003
39.445835113525426,-9.237500190734869,-0.00023
39.445835113525426,-9.22916698455811,-8e-05
39.4375,-9.87083339691162,-0.02553
39.4375,-9.862500190734869,-0.02501
39.4375,-9.854166984558107,-0.02425
39.4375,-9.845833778381346,-0.02322
39.4375,-9.837499618530277,-0.02201
39.4375,-9.829166412353514,-0.02071
39.4375,-9.820833206176752,-0.01986
39.4375,-9.812500000000002,-0.01891
39.4375,-9.804166793823242,-0.01773
39.4375,-9.795833587646479,-0.01665
39.4375,-9.78750038146973,-0.01518
39.4375,-9.779166221618647,-0.01418
39.4375,-9.770833015441898,-0.01446
39.4375,-9.762499809265137,-0.01679
39.4375,-9.754166603088375,-0.01996
39.4375,-9.745833396911625,-0.02097
39.4375,-9.737500190734863,-0.02038
39.4375,-9.729166984558102,-0.01979
39.4375,-9.720833778381351,-0.01909
39.4375,-9.71249961853027,-0.01848
39.4375,-9.70416641235352,-0.01832
39.4375,-9.695833206176758,-0.01793
39.4375,-9.687499999999996,-0.01629
39.4375,-9.679166793823248,-0.01338
39.4375,-9.670833587646484,-0.01033
39.4375,-9.662500381469723,-0.0082
39.4375,-9.654166221618652,-0.00662
39.4375,-9.645833015441893,-0.00519
39.4375,-9.637499809265142,-0.00428
39.4375,-9.62916660308838,-0.0034
39.4375,-9.620833396911618,-0.0023
39.4375,-9.612500190734869,-0.00176
39.4375,-9.604166984558107,-0.00143
39.4375,-9.595833778381346,-0.00113
39.4375,-9.587499618530275,-0.0011
39.4375,-9.579166412353514,-0.00105
39.4375,-9.570833206176763,-0.00105
39.4375,-9.562500000000002,-0.00099
39.4375,-9.55416679382324,-0.00084
39.4375,-9.545833587646479,-0.00063
39.4375,-9.537500381469728,-0.00043
39.4375,-9.529166221618647,-0.00029
39.4375,-9.520833015441898,-0.00032
39.4375,-9.512499809265135,-0.00045
39.4375,-9.504166603088374,-0.00055
39.4375,-9.495833396911625,-0.00059
39.4375,-9.487500190734863,-0.00059
39.4375,-9.4791669845581,-0.00054
39.4375,-9.470833778381351,-0.00049
39.4375,-9.462499618530268,-0.00049
39.4375,-9.45416641235352,-0.00053
39.4375,-9.445833206176758,-0.00063
39.4375,-9.437499999999996,-0.00077
39.4375,-9.429166793823246,-0.00085
39.4375,-9.420833587646484,-0.00086
39.4375,-9.412500381469723,-0.00085
39.4375,-9.404166221618654,-0.00083
39.4375,-9.395833015441891,-0.00079
39.4375,-9.387499809265142,-0.00075
39.4375,-9.379166603088379,-0.00071
39.4375,-9.37083339691162,-0.00069
39.4375,-9.362500190734869,-0.00067
39.4375,-9.354166984558107,-0.00065
39.4375,-9.345833778381344,-0.00062
39.4375,-9.337499618530275,-0.00059
39.4375,-9.329166412353514,-0.00056
39.4375,-9.320833206176752,-0.00054
39.4375,-9.312500000000002,-0.00052
39.4375,-9.30416679382324,-0.00049
39.4375,-9.29583358764649,-0.00047
39.4375,-9.287500381469728,-0.00044
39.4375,-9.279166221618647,-0.00041
39.4375,-9.270833015441896,-0.00038
39.4375,-9.262499809265135,-0.00032
39.4375,-9.254166603088374,-0.00026
39.4375,-9.245833396911625,-0.00021
39.4375,-9.237500190734862,-0.00014
39.429164886474574,-9.87083339691162,-0.02439
39.429164886474574,-9.862500190734863,-0.02313
39.429164886474574,-9.854166984558097,-0.0227
39.429164886474574,-9.84583377838134,-0.02242
39.429164886474574,-9.837499618530273,-0.02039
39.429164886474574,-9.829166412353509,-0.01896
39.429164886474574,-9.82083320617675,-0.01869
39.429164886474574,-9.812499999999995,-0.01461
39.429164886474574,-9.80416679382324,-0.01201
39.429164886474574,-9.795833587646484,-0.01264
39.429164886474574,-9.787500381469718,-0.01272
39.429164886474574,-9.77916622161865,-0.01412
39.429164886474574,-9.770833015441884,-0.01604
39.429164886474574,-9.762499809265128,-0.01789
39.429164886474574,-9.754166603088374,-0.01924
39.429164886474574,-9.745833396911618,-0.01915
39.429164886474574,-9.737500190734862,-0.01841
39.429164886474574,-9.729166984558095,-0.01808
39.429164886474574,-9.720833778381339,-0.01713
39.429164886474574,-9.712499618530273,-0.01592
39.429164886474574,-9.704166412353505,-0.01634
39.429164886474574,-9.69583320617675,-0.01739
39.429164886474574,-9.687499999999995,-0.01681
39.429164886474574,-9.679166793823239,-0.01444
39.429164886474574,-9.670833587646484,-0.01178
39.429164886474574,-9.662500381469716,-0.0101
39.429164886474574,-9.654166221618649,-0.00944
39.429164886474574,-9.645833015441895,-0.0086
39.429164886474574,-9.637499809265128,-0.00733
39.429164886474574,-9.629166603088372,-0.00592
39.429164886474574,-9.620833396911618,-0.00456
39.429164886474574,-9.61250019073486,-0.00334
39.429164886474574,-9.604166984558105,-0.00191
39.429164886474574,-9.595833778381339,-0.00116
39.429164886474574,-9.587499618530272,-0.00112
39.429164886474574,-9.579166412353516,-0.0011
39.429164886474574,-9.570833206176749,-0.00112
39.429164886474574,-9.562499999999993,-0.00109
39.429164886474574,-9.554166793823237,-0.00094
39.429164886474574,-9.545833587646483,-0.00068
39.429164886474574,-9.537500381469727,-0.00042
39.429164886474574,-9.529166221618649,-0.00025
39.429164886474574,-9.520833015441893,-0.0002
39.429164886474574,-9.512499809265126,-0.00027
39.429164886474574,-9.50416660308837,-0.00035
39.429164886474574,-9.495833396911616,-0.00042
39.429164886474574,-9.48750019073486,-0.00047
39.429164886474574,-9.479166984558104,-0.00046
39.429164886474574,-9.47083377838135,-0.00043
39.429164886474574,-9.462499618530272,-0.00043
39.429164886474574,-9.454166412353514,-0.00048
39.429164886474574,-9.445833206176747,-0.00057
39.429164886474574,-9.437499999999993,-0.00067
39.429164886474574,-9.429166793823237,-0.00074
39.429164886474574,-9.42083358764648,-0.00076
39.429164886474574,-9.412500381469725,-0.00076
39.429164886474574,-9.404166221618647,-0.00073
39.429164886474574,-9.395833015441891,-0.00067
39.429164886474574,-9.387499809265137,-0.00061
39.429164886474574,-9.379166603088368,-0.00059
39.429164886474574,-9.370833396911614,-0.00059
39.429164886474574,-9.362500190734858,-0.00058
39.429164886474574,-9.354166984558102,-0.00057
39.429164886474574,-9.345833778381348,-0.00057
39.429164886474574,-9.33749961853027,-0.00055
39.429164886474574,-9.329166412353514,-0.00052
39.429164886474574,-9.320833206176758,-0.00049
39.429164886474574,-9.312499999999991,-0.00047
39.429164886474574,-9.304166793823235,-0.00045
39.429164886474574,-9.295833587646479,-0.00042
39.429164886474574,-9.287500381469725,-0.00039
39.429164886474574,-9.279166221618647,-0.00036
39.429164886474574,-9.270833015441891,-0.00032
39.429164886474574,-9.262499809265135,-0.00025
39.429164886474574,-9.25416660308838,-0.00017
39.429164886474574,-9.245833396911612,-6e-05
39.42083358764652,-9.870833396911621,-0.02324
39.42083358764652,-9.862500190734863,-0.02079
39.42083358764652,-9.854166984558107,-0.01944
39.42083358764652,-9.845833778381351,-0.0199
39.42083358764652,-9.837499618530279,-0.01907
39.42083358764652,-9.829166412353523,-0.01686
39.42083358764652,-9.820833206176765,-0.01445
39.42083358764652,-9.812500000000009,-0.01058
39.42083358764652,-9.804166793823253,-0.00824
39.42083358764652,-9.795833587646484,-0.00852
39.42083358764652,-9.787500381469728,-0.01044
39.42083358764652,-9.779166221618656,-0.01342
39.42083358764652,-9.770833015441898,-0.01541
39.42083358764652,-9.76249980926514,-0.01653
39.42083358764652,-9.754166603088384,-0.01718
39.42083358764652,-9.745833396911628,-0.01659
39.42083358764652,-9.737500190734872,-0.01517
39.42083358764652,-9.729166984558114,-0.01472
39.42083358764652,-9.720833778381358,-0.01402
39.42083358764652,-9.712499618530273,-0.01266
39.42083358764652,-9.704166412353517,-0.01292
39.42083358764652,-9.695833206176761,-0.01473
39.42083358764652,-9.687500000000005,-0.01612
39.42083358764652,-9.679166793823248,-0.01561
39.42083358764652,-9.670833587646491,-0.01395
39.42083358764652,-9.662500381469734,-0.01283
39.42083358764652,-9.654166221618661,-0.01246
39.42083358764652,-9.645833015441905,-0.01171
39.42083358764652,-9.637499809265137,-0.00976
39.42083358764652,-9.62916660308838,-0.00763
39.42083358764652,-9.620833396911623,-0.00594
39.42083358764652,-9.612500190734867,-0.00393
39.42083358764652,-9.60416698455811,-0.00198
39.42083358764652,-9.595833778381355,-0.00132
39.42083358764652,-9.587499618530282,-0.00149
39.42083358764652,-9.579166412353525,-0.00146
39.42083358764652,-9.570833206176756,-0.0013
39.42083358764652,-9.5625,-0.00116
39.42083358764652,-9.554166793823244,-0.00095
39.42083358764652,-9.545833587646488,-0.00068
39.42083358764652,-9.53750038146973,-0.00044
39.42083358764652,-9.529166221618658,-0.0003
39.42083358764652,-9.5208330154419,-0.00015
39.42083358764652,-9.495833396911632,-0.00026
39.42083358764652,-9.487500190734863,-0.00035
39.42083358764652,-9.479166984558105,-0.00039
39.42083358764652,-9.47083377838135,-0.0004
39.42083358764652,-9.462499618530277,-0.00043
39.42083358764652,-9.454166412353521,-0.00048
39.42083358764652,-9.445833206176765,-0.00053
39.42083358764652,-9.437500000000007,-0.00059
39.42083358764652,-9.42916679382325,-0.00062
39.42083358764652,-9.420833587646493,-0.00063
39.42083358764652,-9.412500381469737,-0.00061
39.42083358764652,-9.404166221618652,-0.00057
39.42083358764652,-9.395833015441896,-0.00053
39.42083358764652,-9.38749980926514,-0.0005
39.42083358764652,-9.379166603088382,-0.00051
39.42083358764652,-9.370833396911626,-0.00053
39.42083358764652,-9.36250019073487,-0.00051
39.42083358764652,-9.354166984558114,-0.00049
39.42083358764652,-9.345833778381357,-0.00049
39.42083358764652,-9.337499618530273,-0.00049
39.42083358764652,-9.329166412353516,-0.00047
39.42083358764652,-9.32083320617676,-0.00044
39.42083358764652,-9.312500000000004,-0.00042
39.42083358764652,-9.304166793823246,-0.0004
39.42083358764652,-9.29583358764649,-0.00037
39.42083358764652,-9.287500381469732,-0.00034
39.42083358764652,-9.27916622161866,-0.0003
39.42083358764652,-9.270833015441903,-0.00024
39.42083358764652,-9.262499809265147,-0.00014
39.42083358764652,-9.254166603088379,-2e-05
39.42083358764652,-9.220833778381353,-1e-05
39.412498474121094,-9.870833396911618,-0.02152
39.412498474121094,-9.86250019073486,-0.01984
39.412498474121094,-9.8541669845581,-0.01711
39.412498474121094,-9.845833778381342,-0.01578
39.412498474121094,-9.83749961853027,-0.0156
39.412498474121094,-9.829166412353512,-0.01442
39.412498474121094,-9.820833206176752,-0.01153
39.412498474121094,-9.812499999999995,-0.00807
39.412498474121094,-9.804166793823237,-0.0064
39.412498474121094,-9.795833587646479,-0.00641
39.412498474121094,-9.787500381469732,-0.00755
39.412498474121094,-9.779166221618649,-0.00963
39.412498474121094,-9.77083301544189,-0.01142
39.412498474121094,-9.762499809265142,-0.01265
39.412498474121094,-9.754166603088384,-0.01359
39.412498474121094,-9.745833396911625,-0.0131
39.412498474121094,-9.737500190734867,-0.01194
39.412498474121094,-9.729166984558109,-0.01112
39.412498474121094,-9.720833778381351,-0.00996
39.412498474121094,-9.712499618530279,-0.0091
39.412498474121094,-9.704166412353521,-0.00957
39.412498474121094,-9.695833206176761,-0.01145
39.412498474121094,-9.687500000000002,-0.01348
39.412498474121094,-9.679166793823244,-0.01421
39.412498474121094,-9.670833587646486,-0.01389
39.412498474121094,-9.662500381469728,-0.01273
39.412498474121094,-9.654166221618656,-0.01144
39.412498474121094,-9.645833015441898,-0.01115
39.412498474121094,-9.637499809265138,-0.01041
39.412498474121094,-9.62916660308838,-0.00882
39.412498474121094,-9.620833396911621,-0.00726
39.412498474121094,-9.612500190734863,-0.00555
39.412498474121094,-9.604166984558105,-0.00399
39.412498474121094,-9.595833778381348,-0.00263
39.412498474121094,-9.587499618530275,-0.00206
39.412498474121094,-9.579166412353517,-0.00217
39.412498474121094,-9.570833206176758,-0.00169
39.412498474121094,-9.5625,-0.00117
39.412498474121094,-9.55416679382324,-0.00095
39.412498474121094,-9.545833587646483,-0.0007
39.412498474121094,-9.537500381469725,-0.0005
39.412498474121094,-9.529166221618652,-0.00036
39.412498474121094,-9.520833015441895,-0.00012
39.412498474121094,-9.495833396911618,-0.00026
39.412498474121094,-9.48750019073486,-0.0003
39.412498474121094,-9.4791669845581,-0.00034
39.412498474121094,-9.470833778381342,-0.00038
39.412498474121094,-9.462499618530272,-0.00044
39.412498474121094,-9.454166412353514,-0.00049
39.412498474121094,-9.445833206176754,-0.0005
39.412498474121094,-9.437499999999996,-0.00051
39.412498474121094,-9.429166793823237,-0.0005
39.412498474121094,-9.42083358764649,-0.00047
39.412498474121094,-9.412500381469732,-0.00044
39.412498474121094,-9.40416622161865,-0.00044
39.412498474121094,-9.395833015441891,-0.00046
39.412498474121094,-9.387499809265133,-0.00049
39.412498474121094,-9.379166603088374,-0.00051
39.412498474121094,-9.370833396911626,-0.0005
39.412498474121094,-9.362500190734869,-0.00048
39.412498474121094,-9.354166984558109,-0.00045
39.412498474121094,-9.345833778381351,-0.00043
39.412498474121094,-9.337499618530268,-0.00042
39.412498474121094,-9.32916641235351,-0.00041
39.412498474121094,-9.320833206176763,-0.00039
39.412498474121094,-9.312500000000004,-0.00037
39.412498474121094,-9.304166793823246,-0.00035
39.412498474121094,-9.295833587646486,-0.00031
39.412498474121094,-9.287500381469728,-0.00026
39.412498474121094,-9.279166221618658,-0.00021
39.412498474121094,-9.2708330154419,-0.0001
39.412498474121094,-9.212499618530277,-3e-05
39.40416717529293,-9.870833396911616,-0.01823
39.40416717529293,-9.862500190734862,-0.01777
39.40416717529293,-9.854166984558097,-0.01574
39.40416717529293,-9.845833778381344,-0.01271
39.40416717529293,-9.837499618530268,-0.01136
39.40416717529293,-9.829166412353514,-0.01041
39.40416717529293,-9.820833206176749,-0.00829
39.40416717529293,-9.812499999999996,-0.00615
39.40416717529293,-9.804166793823232,-0.00543
39.40416717529293,-9.795833587646479,-0.00544
39.40416717529293,-9.787500381469725,-0.00504
39.40416717529293,-9.77916622161865,-0.00527
39.40416717529293,-9.770833015441884,-0.00603
39.40416717529293,-9.762499809265131,-0.00708
39.40416717529293,-9.754166603088379,-0.00822
39.40416717529293,-9.745833396911614,-0.00819
39.40416717529293,-9.73750019073486,-0.00748
39.40416717529293,-9.729166984558097,-0.00639
39.40416717529293,-9.720833778381342,-0.00524
39.40416717529293,-9.712499618530266,-0.00497
39.40416717529293,-9.704166412353514,-0.00632
39.40416717529293,-9.695833206176749,-0.00839
39.40416717529293,-9.687499999999995,-0.00985
39.40416717529293,-9.679166793823242,-0.01038
39.40416717529293,-9.670833587646477,-0.01047
39.40416717529293,-9.662500381469725,-0.00953
39.40416717529293,-9.654166221618649,-0.00775
39.40416717529293,-9.645833015441895,-0.00745
39.40416717529293,-9.637499809265131,-0.00866
39.40416717529293,-9.629166603088377,-0.0093
39.40416717529293,-9.620833396911614,-0.00838
39.40416717529293,-9.61250019073486,-0.00741
39.40416717529293,-9.604166984558095,-0.00681
39.40416717529293,-9.59583377838134,-0.00483
39.40416717529293,-9.587499618530266,-0.00286
39.40416717529293,-9.579166412353512,-0.0025
39.40416717529293,-9.570833206176747,-0.00184
39.40416717529293,-9.562499999999995,-0.00115
39.40416717529293,-9.554166793823242,-0.00096
39.40416717529293,-9.545833587646477,-0.00073
39.40416717529293,-9.537500381469723,-0.00052
39.40416717529293,-9.529166221618649,-0.00037
39.40416717529293,-9.520833015441895,-0.00024
39.40416717529293,-9.51249980926513,-0.00012
39.40416717529293,-9.504166603088375,-0.00021
39.40416717529293,-9.495833396911612,-0.00033
39.40416717529293,-9.487500190734858,-0.00032
39.40416717529293,-9.479166984558105,-0.00034
39.40416717529293,-9.47083377838134,-0.00037
39.40416717529293,-9.462499618530265,-0.00041
39.40416717529293,-9.454166412353512,-0.00044
39.40416717529293,-9.445833206176747,-0.00043
39.40416717529293,-9.437499999999995,-0.00039
39.40416717529293,-9.42916679382324,-0.00036
39.40416717529293,-9.420833587646475,-0.00035
39.40416717529293,-9.412500381469723,-0.00035
39.40416717529293,-9.404166221618647,-0.00038
39.40416717529293,-9.395833015441893,-0.00043
39.40416717529293,-9.38749980926513,-0.00046
39.40416717529293,-9.379166603088375,-0.00047
39.40416717529293,-9.37083339691161,-0.00045
39.40416717529293,-9.362500190734858,-0.00043
39.40416717529293,-9.354166984558105,-0.0004
39.40416717529293,-9.345833778381339,-0.00038
39.40416717529293,-9.337499618530263,-0.00036
39.40416717529293,-9.32916641235351,-0.00035
39.40416717529293,-9.320833206176758,-0.00033
39.40416717529293,-9.312499999999993,-0.00031
39.40416717529293,-9.30416679382324,-0.00027
39.40416717529293,-9.295833587646475,-0.00023
39.40416717529293,-9.287500381469721,-0.00016
39.40416717529293,-9.279166221618645,-7e-05
39.39583206176761,-9.870833396911625,-0.01473
39.39583206176761,-9.862500190734869,-0.01387
39.39583206176761,-9.854166984558104,-0.01308
39.39583206176761,-9.845833778381348,-0.01051
39.39583206176761,-9.83749961853028,-0.00827
39.39583206176761,-9.829166412353516,-0.00668
39.39583206176761,-9.820833206176761,-0.00539
39.39583206176761,-9.812500000000005,-0.00475
39.39583206176761,-9.80416679382324,-0.00448
39.39583206176761,-9.795833587646484,-0.00425
39.39583206176761,-9.787500381469732,-0.00379
39.39583206176761,-9.779166221618652,-0.00322
39.39583206176761,-9.770833015441898,-0.00271
39.39583206176761,-9.762499809265142,-0.00271
39.39583206176761,-9.754166603088377,-0.00315
39.39583206176761,-9.745833396911621,-0.00343
39.39583206176761,-9.737500190734869,-0.00307
39.39583206176761,-9.729166984558113,-0.00252
39.39583206176761,-9.720833778381348,-0.00229
39.39583206176761,-9.71249961853028,-0.00218
39.39583206176761,-9.704166412353514,-0.00316
39.39583206176761,-9.69583320617676,-0.00481
39.39583206176761,-9.687500000000005,-0.00622
39.39583206176761,-9.67916679382325,-0.00683
39.39583206176761,-9.670833587646484,-0.0066
39.39583206176761,-9.662500381469728,-0.00579
39.39583206176761,-9.65416622161865,-0.00429
39.39583206176761,-9.645833015441896,-0.00366
39.39583206176761,-9.637499809265142,-0.00542
39.39583206176761,-9.629166603088388,-0.00731
39.39583206176761,-9.620833396911621,-0.00659
39.39583206176761,-9.612500190734867,-0.00575
39.39583206176761,-9.604166984558113,-0.00602
39.39583206176761,-9.595833778381346,-0.00501
39.39583206176761,-9.587499618530279,-0.00334
39.39583206176761,-9.579166412353525,-0.00226
39.39583206176761,-9.570833206176758,-0.00149
39.39583206176761,-9.562500000000004,-0.00116
39.39583206176761,-9.55416679382325,-0.00097
39.39583206176761,-9.545833587646483,-0.00072
39.39583206176761,-9.537500381469728,-0.00053
39.39583206176761,-9.529166221618661,-0.00044
39.39583206176761,-9.520833015441895,-0.00041
39.39583206176761,-9.51249980926514,-0.00041
39.39583206176761,-9.504166603088386,-0.00039
39.39583206176761,-9.49583339691162,-0.00037
39.39583206176761,-9.487500190734865,-0.00035
39.39583206176761,-9.47916698455811,-0.00036
39.39583206176761,-9.470833778381357,-0.00038
39.39583206176761,-9.462499618530277,-0.00039
39.39583206176761,-9.454166412353523,-0.00039
39.39583206176761,-9.445833206176758,-0.00037
39.39583206176761,-9.437500000000002,-0.00033
39.39583206176761,-9.429166793823248,-0.00031
39.39583206176761,-9.420833587646493,-0.0003
39.39583206176761,-9.412500381469727,-0.00032
39.39583206176761,-9.40416622161866,-0.00034
39.39583206176761,-9.395833015441895,-0.00036
39.39583206176761,-9.387499809265138,-0.00038
39.39583206176761,-9.379166603088384,-0.00038
39.39583206176761,-9.37083339691163,-0.00037
39.39583206176761,-9.362500190734863,-0.00034
39.39583206176761,-9.354166984558109,-0.00031
39.39583206176761,-9.345833778381355,-0.0003
39.39583206176761,-9.337499618530275,-0.00029
39.39583206176761,-9.329166412353523,-0.00028
39.39583206176761,-9.320833206176767,-0.00026
39.39583206176761,-9.312500000000002,-0.00022
39.39583206176761,-9.304166793823246,-0.00017
39.39583206176761,-9.295833587646491,-8e-05
39.38750076293945,-9.870833396911625,-0.01195
39.38750076293945,-9.862500190734869,-0.01027
39.38750076293945,-9.8541669845581,-0.00947
39.38750076293945,-9.845833778381344,-0.00807
39.38750076293945,-9.837499618530268,-0.00656
39.38750076293945,-9.829166412353512,-0.00524
39.38750076293945,-9.820833206176754,-0.00439
39.38750076293945,-9.812499999999998,-0.00399
39.38750076293945,-9.804166793823242,-0.00372
39.38750076293945,-9.795833587646484,-0.00345
39.38750076293945,-9.787500381469727,-0.00305
39.38750076293945,-9.779166221618652,-0.0025
39.38750076293945,-9.770833015441895,-0.00205
39.38750076293945,-9.762499809265138,-0.00166
39.38750076293945,-9.754166603088382,-0.00142
39.38750076293945,-9.745833396911625,-0.00152
39.38750076293945,-9.737500190734867,-0.00162
39.38750076293945,-9.72916698455811,-0.00154
39.38750076293945,-9.720833778381342,-0.00152
39.38750076293945,-9.712499618530279,-0.00147
39.38750076293945,-9.70416641235351,-0.00141
39.38750076293945,-9.695833206176752,-0.00181
39.38750076293945,-9.687499999999996,-0.00304
39.38750076293945,-9.67916679382324,-0.00411
39.38750076293945,-9.670833587646484,-0.00392
39.38750076293945,-9.662500381469727,-0.00304
39.38750076293945,-9.65416622161865,-0.00192
39.38750076293945,-9.645833015441895,-0.00169
39.38750076293945,-9.637499809265138,-0.0031
39.38750076293945,-9.62916660308838,-0.00447
39.38750076293945,-9.620833396911625,-0.00412
39.38750076293945,-9.612500190734867,-0.00329
39.38750076293945,-9.604166984558109,-0.00331
39.38750076293945,-9.595833778381353,-0.00301
39.38750076293945,-9.587499618530279,-0.00236
39.38750076293945,-9.579166412353521,-0.00178
39.38750076293945,-9.570833206176752,-0.00133
39.38750076293945,-9.562499999999995,-0.00117
39.38750076293945,-9.554166793823239,-0.00098
39.38750076293945,-9.545833587646483,-0.00074
39.38750076293945,-9.537500381469725,-0.00061
39.38750076293945,-9.52916622161865,-0.00057
39.38750076293945,-9.520833015441893,-0.00053
39.38750076293945,-9.512499809265137,-0.00048
39.38750076293945,-9.50416660308838,-0.00043
39.38750076293945,-9.495833396911623,-0.00041
39.38750076293945,-9.487500190734865,-0.0004
39.38750076293945,-9.479166984558109,-0.00041
39.38750076293945,-9.470833778381351,-0.00041
39.38750076293945,-9.462499618530277,-0.0004
39.38750076293945,-9.454166412353521,-0.0004
39.38750076293945,-9.445833206176763,-0.00039
39.38750076293945,-9.437499999999995,-0.00035
39.38750076293945,-9.429166793823237,-0.0003
39.38750076293945,-9.42083358764648,-0.00028
39.38750076293945,-9.412500381469725,-0.00027
39.38750076293945,-9.404166221618649,-0.00026
39.38750076293945,-9.395833015441893,-0.00028
39.38750076293945,-9.387499809265135,-0.00029
39.38750076293945,-9.379166603088379,-0.00029
39.38750076293945,-9.370833396911623,-0.00027
39.38750076293945,-9.362500190734865,-0.00025
39.38750076293945,-9.354166984558107,-0.00022
39.38750076293945,-9.345833778381351,-0.0002
39.38750076293945,-9.337499618530277,-0.00018
39.38750076293945,-9.32916641235352,-0.00018
39.38750076293945,-9.320833206176763,-0.00014
39.38750076293945,-9.312500000000005,-8e-05
39.38750076293945,-9.304166793823237,-3e-05
39.37916564941403,-9.87083339691162,-0.00949
39.37916564941403,-9.862500190734858,-0.00803
39.37916564941403,-9.854166984558098,-0.00709
39.37916564941403,-9.845833778381337,-0.00642
39.37916564941403,-9.837499618530265,-0.00574
39.37916564941403,-9.829166412353516,-0.00471
39.37916564941403,-9.820833206176754,-0.00378
39.37916564941403,-9.812499999999995,-0.0033
39.37916564941403,-9.804166793823233,-0.00305
39.37916564941403,-9.795833587646474,-0.00276
39.37916564941403,-9.787500381469725,-0.0024
39.37916564941403,-9.77916622161865,-0.00209
39.37916564941403,-9.77083301544189,-0.0019
39.37916564941403,-9.76249980926513,-0.00177
39.37916564941403,-9.754166603088368,-0.00163
39.37916564941403,-9.74583339691162,-0.00162
39.37916564941403,-9.73750019073486,-0.00167
39.37916564941403,-9.7291669845581,-0.00156
39.37916564941403,-9.720833778381339,-0.00154
39.37916564941403,-9.712499618530265,-0.00147
39.37916564941403,-9.704166412353516,-0.001
39.37916564941403,-9.695833206176756,-0.00042
39.37916564941403,-9.687499999999995,-0.0007
39.37916564941403,-9.679166793823235,-0.00147
39.37916564941403,-9.670833587646474,-0.00146
39.37916564941403,-9.662500381469725,-0.00089
39.37916564941403,-9.654166221618652,-0.00057
39.37916564941403,-9.645833015441891,-0.00097
39.37916564941403,-9.637499809265131,-0.0018
39.37916564941403,-9.62916660308837,-0.00245
39.37916564941403,-9.620833396911623,-0.0025
39.37916564941403,-9.612500190734862,-0.00203
39.37916564941403,-9.604166984558102,-0.00169
39.37916564941403,-9.59583377838134,-0.00151
39.37916564941403,-9.587499618530266,-0.00136
39.37916564941403,-9.579166412353505,-0.00136
39.37916564941403,-9.570833206176756,-0.00127
39.37916564941403,-9.562499999999996,-0.00113
39.37916564941403,-9.554166793823235,-0.00103
39.37916564941403,-9.545833587646475,-0.00087
39.37916564941403,-9.537500381469727,-0.00075
39.37916564941403,-9.529166221618652,-0.00068
39.37916564941403,-9.520833015441893,-0.0006
39.37916564941403,-9.512499809265131,-0.00052
39.37916564941403,-9.504166603088372,-0.00046
39.37916564941403,-9.49583339691161,-0.00044
39.37916564941403,-9.487500190734863,-0.00044
39.37916564941403,-9.479166984558102,-0.00043
39.37916564941403,-9.47083377838134,-0.00041
39.37916564941403,-9.462499618530266,-0.0004
39.37916564941403,-9.454166412353507,-0.0004
39.37916564941403,-9.445833206176758,-0.00039
39.37916564941403,-9.437499999999996,-0.00035
39.37916564941403,-9.429166793823237,-0.0003
39.37916564941403,-9.420833587646477,-0.00024
39.37916564941403,-9.412500381469728,-0.00022
39.37916564941403,-9.404166221618642,-0.00022
39.37916564941403,-9.395833015441893,-0.0002
39.37916564941403,-9.387499809265133,-0.00018
39.37916564941403,-9.379166603088372,-0.00016
39.37916564941403,-9.370833396911612,-0.00016
39.37916564941403,-9.362500190734863,-0.00017
39.37916564941403,-9.354166984558102,-0.00015
39.37916564941403,-9.345833778381342,-0.00011
39.37916564941403,-9.337499618530268,-6e-05
39.37916564941403,-9.329166412353509,-1e-05
39.37083435058597,-9.870833396911626,-0.00759
39.37083435058597,-9.862500190734876,-0.0067
39.37083435058597,-9.854166984558114,-0.00591
39.37083435058597,-9.845833778381353,-0.00537
39.37083435058597,-9.837499618530277,-0.0049
39.37083435058597,-9.829166412353528,-0.00411
39.37083435058597,-9.820833206176765,-0.0033
39.37083435058597,-9.812500000000004,-0.00283
39.37083435058597,-9.804166793823253,-0.00254
39.37083435058597,-9.795833587646491,-0.0023
39.37083435058597,-9.787500381469728,-0.00209
39.37083435058597,-9.779166221618656,-0.00192
39.37083435058597,-9.770833015441905,-0.00183
39.37083435058597,-9.762499809265142,-0.00176
39.37083435058597,-9.754166603088379,-0.00171
39.37083435058597,-9.74583339691163,-0.00168
39.37083435058597,-9.737500190734869,-0.00166
39.37083435058597,-9.729166984558116,-0.00158
39.37083435058597,-9.720833778381355,-0.00151
39.37083435058597,-9.71249961853028,-0.00141
39.37083435058597,-9.704166412353517,-0.00087
39.37083435058597,-9.695833206176768,-6e-05
39.37083435058597,-9.654166221618658,-0.00018
39.37083435058597,-9.645833015441896,-0.00087
39.37083435058597,-9.637499809265146,-0.00112
39.37083435058597,-9.629166603088382,-0.0013
39.37083435058597,-9.620833396911632,-0.00136
39.37083435058597,-9.61250019073487,-0.00126
39.37083435058597,-9.604166984558109,-0.00116
39.37083435058597,-9.595833778381358,-0.00118
39.37083435058597,-9.587499618530284,-0.00121
39.37083435058597,-9.579166412353521,-0.00117
39.37083435058597,-9.57083320617676,-0.00111
39.37083435058597,-9.562500000000009,-0.00107
39.37083435058597,-9.554166793823248,-0.00104
39.37083435058597,-9.545833587646497,-0.00096
39.37083435058597,-9.537500381469734,-0.00084
39.37083435058597,-9.529166221618661,-0.00073
39.37083435058597,-9.520833015441898,-0.00065
39.37083435058597,-9.512499809265147,-0.00057
39.37083435058597,-9.504166603088386,-0.00048
39.37083435058597,-9.495833396911623,-0.00043
39.37083435058597,-9.487500190734872,-0.00041
39.37083435058597,-9.47916698455811,-0.0004
39.37083435058597,-9.47083377838135,-0.00038
39.37083435058597,-9.462499618530275,-0.00037
39.37083435058597,-9.454166412353525,-0.00036
39.37083435058597,-9.445833206176763,-0.00035
39.37083435058597,-9.437500000000012,-0.00033
39.37083435058597,-9.42916679382325,-0.00032
39.37083435058597,-9.420833587646488,-0.00025
39.37083435058597,-9.412500381469737,-0.00016
39.37083435058597,-9.362500190734865,-7e-05
39.37083435058597,-9.354166984558114,-7e-05
39.37083435058597,-9.345833778381351,-3e-05
39.36249923706055,-9.87083339691162,-0.00684
39.36249923706055,-9.86250019073486,-0.00577
39.36249923706055,-9.854166984558113,-0.00492
39.36249923706055,-9.845833778381353,-0.00431
39.36249923706055,-9.83749961853028,-0.00394
39.36249923706055,-9.829166412353523,-0.00341
39.36249923706055,-9.820833206176763,-0.00286
39.36249923706055,-9.812500000000004,-0.00254
39.36249923706055,-9.804166793823244,-0.00226
39.36249923706055,-9.795833587646486,-0.00208
39.36249923706055,-9.787500381469727,-0.00199
39.36249923706055,-9.779166221618654,-0.0019
39.36249923706055,-9.770833015441895,-0.00181
39.36249923706055,-9.762499809265137,-0.00173
39.36249923706055,-9.754166603088377,-0.00166
39.36249923706055,-9.745833396911618,-0.00163
39.36249923706055,-9.73750019073487,-0.00162
39.36249923706055,-9.729166984558113,-0.00154
39.36249923706055,-9.720833778381353,-0.00146
39.36249923706055,-9.71249961853028,-0.00143
39.36249923706055,-9.704166412353521,-0.00093
39.36249923706055,-9.695833206176761,-0.00013
39.36249923706055,-9.654166221618654,-0.00034
39.36249923706055,-9.645833015441895,-0.00092
39.36249923706055,-9.637499809265135,-0.00098
39.36249923706055,-9.629166603088375,-0.001
39.36249923706055,-9.620833396911618,-0.001
39.36249923706055,-9.61250019073487,-0.00103
39.36249923706055,-9.60416698455811,-0.00111
39.36249923706055,-9.595833778381351,-0.00116
39.36249923706055,-9.587499618530279,-0.00115
39.36249923706055,-9.579166412353521,-0.0011
39.36249923706055,-9.570833206176761,-0.00105
39.36249923706055,-9.562500000000002,-0.00102
39.36249923706055,-9.554166793823244,-0.001
39.36249923706055,-9.545833587646484,-0.00094
39.36249923706055,-9.537500381469725,-0.00085
39.36249923706055,-9.529166221618652,-0.00076
39.36249923706055,-9.520833015441893,-0.00068
39.36249923706055,-9.512499809265135,-0.00059
39.36249923706055,-9.504166603088375,-0.00048
39.36249923706055,-9.495833396911628,-0.00039
39.36249923706055,-9.487500190734869,-0.00033
39.36249923706055,-9.47916698455811,-0.00032
39.36249923706055,-9.470833778381351,-0.00033
39.36249923706055,-9.462499618530279,-0.00032
39.36249923706055,-9.45416641235352,-0.00031
39.36249923706055,-9.44583320617676,-0.0003
39.36249923706055,-9.437500000000002,-0.0003
39.36249923706055,-9.429166793823242,-0.00028
39.36249923706055,-9.420833587646483,-0.00026
39.36249923706055,-9.412500381469725,-0.00012
39.35416793823239,-9.870833396911618,-0.00648
39.35416793823239,-9.862500190734854,-0.00501
39.35416793823239,-9.854166984558104,-0.00413
39.35416793823239,-9.845833778381342,-0.0035
39.35416793823239,-9.837499618530273,-0.00312
39.35416793823239,-9.82916641235351,-0.00276
39.35416793823239,-9.820833206176749,-0.00247
39.35416793823239,-9.812499999999998,-0.00229
39.35416793823239,-9.804166793823233,-0.00209
39.35416793823239,-9.795833587646484,-0.00197
39.35416793823239,-9.787500381469721,-0.00193
39.35416793823239,-9.779166221618652,-0.00186
39.35416793823239,-9.770833015441891,-0.00177
39.35416793823239,-9.762499809265128,-0.00168
39.35416793823239,-9.754166603088377,-0.00159
39.35416793823239,-9.745833396911614,-0.00158
39.35416793823239,-9.737500190734863,-0.00156
39.35416793823239,-9.7291669845581,-0.00148
39.35416793823239,-9.72083377838135,-0.00144
39.35416793823239,-9.71249961853027,-0.00141
39.35416793823239,-9.704166412353507,-0.00103
39.35416793823239,-9.695833206176756,-0.00044
39.35416793823239,-9.687499999999993,-7e-05
39.35416793823239,-9.662500381469728,-0.00014
39.35416793823239,-9.654166221618649,-0.0006
39.35416793823239,-9.645833015441886,-0.00089
39.35416793823239,-9.637499809265135,-0.00091
39.35416793823239,-9.629166603088374,-0.0009
39.35416793823239,-9.620833396911621,-0.00089
39.35416793823239,-9.612500190734858,-0.00096
39.35416793823239,-9.604166984558109,-0.00106
39.35416793823239,-9.595833778381346,-0.0011
39.35416793823239,-9.587499618530265,-0.00108
39.35416793823239,-9.579166412353514,-0.00104
39.35416793823239,-9.570833206176752,-0.00101
39.35416793823239,-9.5625,-0.00099
39.35416793823239,-9.554166793823239,-0.00095
39.35416793823239,-9.545833587646475,-0.00089
39.35416793823239,-9.537500381469725,-0.00083
39.35416793823239,-9.529166221618643,-0.00075
39.35416793823239,-9.520833015441895,-0.00065
39.35416793823239,-9.512499809265131,-0.00055
39.35416793823239,-9.504166603088379,-0.00045
39.35416793823239,-9.495833396911618,-0.00036
39.35416793823239,-9.487500190734854,-0.0003
39.35416793823239,-9.479166984558104,-0.00029
39.35416793823239,-9.47083377838134,-0.0003
39.35416793823239,-9.462499618530273,-0.0003
39.35416793823239,-9.45416641235351,-0.00029
39.35416793823239,-9.445833206176758,-0.00029
39.35416793823239,-9.437499999999996,-0.00028
39.35416793823239,-9.429166793823233,-0.00027
39.35416793823239,-9.420833587646483,-0.00022
39.35416793823239,-9.412500381469721,-0.00015
39.34583282470707,-9.870833396911623,-0.00559
39.34583282470707,-9.862500190734865,-0.00427
39.34583282470707,-9.854166984558109,-0.00347
39.34583282470707,-9.845833778381355,-0.00293
39.34583282470707,-9.837499618530273,-0.0026
39.34583282470707,-9.82916641235352,-0.00239
39.34583282470707,-9.820833206176763,-0.00223
39.34583282470707,-9.812500000000007,-0.00211
39.34583282470707,-9.804166793823251,-0.00197
39.34583282470707,-9.795833587646495,-0.00189
39.34583282470707,-9.787500381469728,-0.00188
39.34583282470707,-9.77916622161866,-0.00183
39.34583282470707,-9.770833015441903,-0.00173
39.34583282470707,-9.762499809265147,-0.00164
39.34583282470707,-9.75416660308838,-0.00155
39.34583282470707,-9.745833396911625,-0.00153
39.34583282470707,-9.737500190734869,-0.00152
39.34583282470707,-9.729166984558113,-0.00145
39.34583282470707,-9.720833778381357,-0.00139
39.34583282470707,-9.712499618530277,-0.00131
39.34583282470707,-9.704166412353521,-0.00112
39.34583282470707,-9.695833206176765,-0.0008
39.34583282470707,-9.687500000000009,-0.00049
39.34583282470707,-9.679166793823242,-0.00033
39.34583282470707,-9.670833587646486,-0.00043
39.34583282470707,-9.66250038146973,-0.0006
39.34583282470707,-9.654166221618661,-0.00079
39.34583282470707,-9.645833015441895,-0.00087
39.34583282470707,-9.637499809265138,-0.00083
39.34583282470707,-9.629166603088382,-0.00079
39.34583282470707,-9.620833396911626,-0.0008
39.34583282470707,-9.61250019073487,-0.00091
39.34583282470707,-9.604166984558114,-0.001
39.34583282470707,-9.595833778381348,-0.00102
39.34583282470707,-9.587499618530279,-0.001
39.34583282470707,-9.579166412353525,-0.00098
39.34583282470707,-9.570833206176767,-0.00096
39.34583282470707,-9.5625,-0.00094
39.34583282470707,-9.554166793823244,-0.00089
39.34583282470707,-9.545833587646488,-0.00084
39.34583282470707,-9.537500381469732,-0.00079
39.34583282470707,-9.529166221618652,-0.00071
39.34583282470707,-9.520833015441896,-0.0006
39.34583282470707,-9.51249980926514,-0.00052
39.34583282470707,-9.504166603088386,-0.00046
39.34583282470707,-9.495833396911628,-0.00041
39.34583282470707,-9.487500190734874,-0.00037
39.34583282470707,-9.479166984558105,-0.00034
39.34583282470707,-9.470833778381351,-0.00033
39.34583282470707,-9.462499618530282,-0.00033
39.34583282470707,-9.454166412353526,-0.00032
39.34583282470707,-9.445833206176758,-0.00031
39.34583282470707,-9.437500000000002,-0.0003
39.34583282470707,-9.429166793823248,-0.00029
39.34583282470707,-9.42083358764649,-0.00024
39.34583282470707,-9.412500381469735,-0.00022
39.34583282470707,-9.404166221618654,-0.00022
39.34583282470707,-9.395833015441898,-0.00019
39.34583282470707,-9.387499809265144,-0.00016
39.34583282470707,-9.379166603088388,-0.00013
39.34583282470707,-9.37083339691162,-8e-05
39.337501525878906,-9.870833396911625,-0.00439
39.337501525878906,-9.86250019073486,-0.00347
39.337501525878906,-9.854166984558109,-0.00287
39.337501525878906,-9.845833778381344,-0.00257
39.337501525878906,-9.83749961853027,-0.00239
39.337501525878906,-9.829166412353517,-0.00224
39.337501525878906,-9.820833206176752,-0.0021
39.337501525878906,-9.8125,-0.00201
39.337501525878906,-9.804166793823248,-0.0019
39.337501525878906,-9.795833587646484,-0.00186
39.337501525878906,-9.787500381469732,-0.00187
39.337501525878906,-9.779166221618658,-0.00181
39.337501525878906,-9.770833015441893,-0.00169
39.337501525878906,-9.76249980926514,-0.00161
39.337501525878906,-9.754166603088375,-0.00155
39.337501525878906,-9.745833396911623,-0.00151
39.337501525878906,-9.73750019073486,-0.00148
39.337501525878906,-9.729166984558107,-0.00139
39.337501525878906,-9.720833778381342,-0.0013
39.337501525878906,-9.712499618530268,-0.0012
39.337501525878906,-9.704166412353516,-0.00106
39.337501525878906,-9.695833206176763,-0.00083
39.337501525878906,-9.687499999999998,-0.0006
39.337501525878906,-9.679166793823246,-0.00057
39.337501525878906,-9.670833587646483,-0.00071
39.337501525878906,-9.66250038146973,-0.0008
39.337501525878906,-9.654166221618656,-0.00082
39.337501525878906,-9.645833015441891,-0.00079
39.337501525878906,-9.637499809265138,-0.00071
39.337501525878906,-9.629166603088374,-0.00071
39.337501525878906,-9.620833396911621,-0.0008
39.337501525878906,-9.612500190734858,-0.0009
39.337501525878906,-9.604166984558105,-0.00093
39.337501525878906,-9.595833778381353,-0.00093
39.337501525878906,-9.587499618530279,-0.00092
39.337501525878906,-9.579166412353514,-0.00092
39.337501525878906,-9.570833206176761,-0.00091
39.337501525878906,-9.562499999999996,-0.00088
39.337501525878906,-9.554166793823244,-0.00083
39.337501525878906,-9.54583358764648,-0.00081
39.337501525878906,-9.537500381469728,-0.00077
39.337501525878906,-9.529166221618654,-0.0007
39.337501525878906,-9.52083301544189,-0.00062
39.337501525878906,-9.512499809265137,-0.00056
39.337501525878906,-9.504166603088384,-0.00052
39.337501525878906,-9.495833396911621,-0.0005
39.337501525878906,-9.487500190734869,-0.00046
39.337501525878906,-9.479166984558104,-0.00043
39.337501525878906,-9.470833778381351,-0.0004
39.337501525878906,-9.462499618530277,-0.00039
39.337501525878906,-9.454166412353512,-0.00037
39.337501525878906,-9.44583320617676,-0.00035
39.337501525878906,-9.437499999999996,-0.00033
39.337501525878906,-9.429166793823244,-0.00031
39.337501525878906,-9.420833587646479,-0.00029
39.337501525878906,-9.412500381469727,-0.00026
39.337501525878906,-9.404166221618652,-0.00024
39.337501525878906,-9.3958330154419,-0.00022
39.337501525878906,-9.387499809265135,-0.0002
39.337501525878906,-9.379166603088382,-0.00018
39.337501525878906,-9.37083339691162,-0.00012
39.32916641235348,-9.870833396911614,-0.0032
39.32916641235348,-9.862500190734858,-0.00283
39.32916641235348,-9.8541669845581,-0.00254
39.32916641235348,-9.845833778381344,-0.0024
39.32916641235348,-9.837499618530266,-0.00228
39.32916641235348,-9.829166412353509,-0.00214
39.32916641235348,-9.820833206176752,-0.00202
39.32916641235348,-9.812499999999996,-0.00195
39.32916641235348,-9.804166793823239,-0.00189
39.32916641235348,-9.795833587646483,-0.00188
39.32916641235348,-9.787500381469727,-0.00191
39.32916641235348,-9.779166221618647,-0.00181
39.32916641235348,-9.770833015441891,-0.00165
39.32916641235348,-9.762499809265135,-0.00158
39.32916641235348,-9.754166603088379,-0.00153
39.32916641235348,-9.745833396911623,-0.00149
39.32916641235348,-9.737500190734854,-0.00143
39.32916641235348,-9.729166984558098,-0.00131
39.32916641235348,-9.72083377838134,-0.0012
39.32916641235348,-9.712499618530273,-0.00108
39.32916641235348,-9.704166412353517,-0.00084
39.32916641235348,-9.695833206176749,-0.00059
39.32916641235348,-9.687499999999993,-0.00057
39.32916641235348,-9.679166793823235,-0.0007
39.32916641235348,-9.670833587646479,-0.00078
39.32916641235348,-9.662500381469723,-0.00079
39.32916641235348,-9.654166221618645,-0.00073
39.32916641235348,-9.64583301544189,-0.00066
39.32916641235348,-9.637499809265131,-0.00064
39.32916641235348,-9.629166603088375,-0.00071
39.32916641235348,-9.62083339691162,-0.00082
39.32916641235348,-9.612500190734862,-0.00087
39.32916641235348,-9.604166984558105,-0.00087
39.32916641235348,-9.59583377838135,-0.00086
39.32916641235348,-9.58749961853027,-0.00087
39.32916641235348,-9.579166412353514,-0.00086
39.32916641235348,-9.570833206176758,-0.00084
39.32916641235348,-9.562500000000002,-0.0008
39.32916641235348,-9.554166793823246,-0.00079
39.32916641235348,-9.545833587646477,-0.00079
39.32916641235348,-9.537500381469721,-0.00077
39.32916641235348,-9.529166221618652,-0.00073
39.32916641235348,-9.520833015441896,-0.00068
39.32916641235348,-9.512499809265128,-0.00062
39.32916641235348,-9.504166603088372,-0.00057
39.32916641235348,-9.495833396911616,-0.00054
39.32916641235348,-9.487500190734858,-0.00052
39.32916641235348,-9.479166984558102,-0.00049
39.32916641235348,-9.470833778381346,-0.00047
39.32916641235348,-9.462499618530268,-0.00045
39.32916641235348,-9.454166412353512,-0.00042
39.32916641235348,-9.445833206176754,-0.00039
39.32916641235348,-9.437499999999998,-0.00035
39.32916641235348,-9.429166793823242,-0.00033
39.32916641235348,-9.420833587646484,-0.00031
39.32916641235348,-9.412500381469728,-0.00028
39.32916641235348,-9.404166221618649,-0.00026
39.32916641235348,-9.395833015441893,-0.00025
39.32916641235348,-9.387499809265137,-0.00022
39.32916641235348,-9.37916660308838,-0.0002
39.32916641235348,-9.370833396911625,-0.00014
39.32916641235348,-9.362500190734856,-4e-05
39.320835113525426,-9.870833396911626,-0.00263
39.320835113525426,-9.862500190734867,-0.00254
39.320835113525426,-9.854166984558105,-0.00241
39.320835113525426,-9.845833778381357,-0.00228
39.320835113525426,-9.83749961853028,-0.00215
39.320835113525426,-9.829166412353521,-0.00203
39.320835113525426,-9.820833206176761,-0.00194
39.320835113525426,-9.8125,-0.0019
39.320835113525426,-9.804166793823251,-0.00188
39.320835113525426,-9.79583358764649,-0.00191
39.320835113525426,-9.78750038146973,-0.00202
39.320835113525426,-9.779166221618656,-0.00187
39.320835113525426,-9.770833015441895,-0.00161
39.320835113525426,-9.762499809265146,-0.00155
39.320835113525426,-9.754166603088384,-0.00146
39.320835113525426,-9.745833396911625,-0.00142
39.320835113525426,-9.737500190734865,-0.00139
39.320835113525426,-9.729166984558114,-0.00126
39.320835113525426,-9.720833778381355,-0.00115
39.320835113525426,-9.712499618530279,-0.00098
39.320835113525426,-9.70416641235352,-0.0007
39.320835113525426,-9.69583320617676,-0.00059
39.320835113525426,-9.687500000000009,-0.00073
39.320835113525426,-9.67916679382325,-0.00082
39.320835113525426,-9.670833587646488,-0.00079
39.320835113525426,-9.662500381469727,-0.00074
39.320835113525426,-9.654166221618652,-0.00068
39.320835113525426,-9.645833015441903,-0.00064
39.320835113525426,-9.637499809265144,-0.00067
39.320835113525426,-9.629166603088382,-0.00075
39.320835113525426,-9.620833396911621,-0.00081
39.320835113525426,-9.612500190734874,-0.00083
39.320835113525426,-9.604166984558113,-0.00082
39.320835113525426,-9.595833778381351,-0.00083
39.320835113525426,-9.587499618530277,-0.00082
39.320835113525426,-9.579166412353516,-0.00079
39.320835113525426,-9.570833206176768,-0.00075
39.320835113525426,-9.562500000000007,-0.00074
39.320835113525426,-9.554166793823246,-0.00076
39.320835113525426,-9.545833587646486,-0.00078
39.320835113525426,-9.537500381469737,-0.00077
39.320835113525426,-9.529166221618663,-0.00074
39.320835113525426,-9.520833015441902,-0.00071
39.320835113525426,-9.51249980926514,-0.00066
39.320835113525426,-9.50416660308838,-0.00061
39.320835113525426,-9.495833396911632,-0.00057
39.320835113525426,-9.48750019073487,-0.00055
39.320835113525426,-9.479166984558109,-0.00053
39.320835113525426,-9.47083377838135,-0.0005
39.320835113525426,-9.462499618530275,-0.00048
39.320835113525426,-9.454166412353526,-0.00046
39.320835113525426,-9.445833206176765,-0.00043
39.320835113525426,-9.437500000000004,-0.0004
39.320835113525426,-9.429166793823244,-0.00037
39.320835113525426,-9.420833587646484,-0.00035
39.320835113525426,-9.412500381469734,-0.00032
39.320835113525426,-9.40416622161866,-0.0003
39.320835113525426,-9.395833015441898,-0.00029
39.320835113525426,-9.387499809265138,-0.00025
