X,Y,Z
4423578.41506958,-827139.032104663,10922
4423578.41506958,-826425.603008624,10988
4423578.41506958,-825712.255549969,11030
4423578.41506958,-824998.908091315,11018
4423578.41506958,-824285.56063266,10981
4423578.41506958,-823572.213174005,10988
4423578.41506958,-822858.86571535,11063
4423578.41506958,-822145.518256696,11205
4423578.41506958,-821432.170798041,11400
4423578.41506958,-820718.741702002,11567
4423578.41506958,-820005.394243348,11687
4423578.41506958,-819292.046784693,11758
4423578.41506958,-818578.699326038,11794
4423578.41506958,-817865.351867383,11823
4423578.41506958,-817152.004408729,11839
4423578.41506958,-816438.656950074,11846
4423578.41506958,-815725.227854035,11849
4423578.41506958,-815011.880395381,11851
4423578.41506958,-814298.532936726,11853
4423578.41506958,-813585.185478071,11855
4423578.41506958,-812871.838019416,11856
4423578.41506958,-812158.490560762,11858
4423578.41506958,-811445.143102107,11859
4423578.41506958,-810731.795643452,11861
4423578.41506958,-810018.366547414,11862
4423578.41506958,-809305.019088759,11863
4423578.41506958,-808591.671630104,11864
4423578.41506958,-807878.324171449,11866
4423578.41506958,-807164.976712795,11866
4423578.41506958,-806451.62925414,11867
4423578.41506958,-805738.281795485,11867
4423578.41506958,-805024.852699447,11868
4423578.41506958,-804311.505240792,11869
4423578.41506958,-803598.157782137,11870
4423578.41506958,-802884.810323482,11871
4423578.41506958,-802171.462864828,11871
4423578.41506958,-801458.115406173,11872
4423578.41506958,-800744.767947518,11873
4423578.41506958,-800031.420488863,11874
4423578.41506958,-799317.991392825,11875
4423578.41506958,-798604.64393417,11876
4423578.41506958,-797891.296475515,11877
4423578.41506958,-797177.949016861,11878
4423578.41506958,-796464.601558206,11880
4423578.41506958,-795751.254099551,11880
4423578.41506958,-795037.906640896,11882
4423578.41506958,-794324.477544858,11883
4423578.41506958,-793611.130086203,11885
4423578.41506958,-792897.782627548,11887
4423578.41506958,-792184.435168894,11890
4423578.41506958,-791471.087710239,11892
4423578.41506958,-790757.740251584,11896
4423578.41506958,-790044.392792929,11900
4423578.41506958,-789331.045334275,11905
4423578.41506958,-788617.616238236,11910
4423578.41506958,-787904.268779581,11915
4423578.41506958,-787190.921320927,11920
4423578.41506958,-786477.573862272,11923
4423578.41506958,-785764.226403617,11926
4423578.41506958,-785050.878944962,11928
4423578.41506958,-784337.531486308,11931
4423578.41506958,-783624.102390269,11934
4423578.41506958,-782910.754931614,11937
4423578.41506958,-782197.40747296,11939
4423578.41506958,-781484.060014305,11943
4423578.41506958,-780770.71255565,11947
4423578.41506958,-780057.365096995,11952
4423578.41506958,-779344.017638341,11958
4423578.41506958,-778630.670179686,11963
4423578.41506958,-777917.241083647,11969
4423578.41506958,-777203.893624993,11974
4423578.41506958,-776490.546166338,11978
4423578.41506958,-775777.198707683,11982
4423578.41506958,-775063.851249028,11988
4422650.97488403,-845075.09605817,9661
4422650.97488403,-844361.662376623,9700
4422650.97488403,-843648.228695076,9749
4422650.97488403,-842934.795013529,9777
4422650.97488403,-842221.279684731,9791
4422650.97488403,-841507.846003184,9814
4422650.97488403,-840794.412321636,9846
4422650.97488403,-840080.978640089,9884
4422650.97488403,-839367.544958542,9924
4422650.97488403,-838654.111276995,9951
4422650.97488403,-837940.677595448,9971
4422650.97488403,-837227.16226665,9995
4422650.97488403,-836513.728585103,10025
4422650.97488403,-835800.294903556,10080
4422650.97488403,-835086.861222009,10170
4422650.97488403,-834373.427540462,10281
4422650.97488403,-833659.993858915,10388
4422650.97488403,-832946.560177368,10481
4422650.97488403,-832233.126495821,10559
4422650.97488403,-831519.611167022,10613
4422650.97488403,-830806.177485475,10653
4422650.97488403,-830092.743803928,10706
4422650.97488403,-829379.310122381,10760
4422650.97488403,-828665.876440834,10805
4422650.97488403,-827952.442759287,10861
4422650.97488403,-827239.00907774,10934
4422650.97488403,-826525.493748942,11013
4422650.97488403,-825812.060067395,11102
4422650.97488403,-825098.626385848,11183
4422650.97488403,-824385.192704301,11203
4422650.97488403,-823671.759022754,11187
4422650.97488403,-822958.325341207,11220
4422650.97488403,-822244.89165966,11316
4422650.97488403,-821531.457978113,11456
4422650.97488403,-820817.942649314,11582
4422650.97488403,-820104.508967767,11659
4422650.97488403,-819391.07528622,11722
4422650.97488403,-818677.641604673,11778
4422650.97488403,-817964.207923126,11816
4422650.97488403,-817250.774241579,11836
4422650.97488403,-816537.340560032,11844
4422650.97488403,-815823.825231234,11848
4422650.97488403,-815110.391549687,11851
4422650.97488403,-814396.95786814,11853
4422650.97488403,-813683.524186593,11854
4422650.97488403,-812970.090505045,11856
4422650.97488403,-812256.656823498,11857
4422650.97488403,-811543.223141951,11859
4422650.97488403,-810829.789460404,11860
4422650.97488403,-810116.274131606,11861
4422650.97488403,-809402.840450059,11862
4422650.97488403,-808689.406768512,11863
4422650.97488403,-807975.973086965,11864
4422650.97488403,-807262.539405418,11865
4422650.97488403,-806549.105723871,11866
4422650.97488403,-805835.672042324,11867
4422650.97488403,-805122.156713526,11867
4422650.97488403,-804408.723031978,11868
4422650.97488403,-803695.289350431,11869
4422650.97488403,-802981.855668884,11870
4422650.97488403,-802268.421987337,11871
4422650.97488403,-801554.98830579,11872
4422650.97488403,-800841.554624243,11873
4422650.97488403,-800128.120942696,11873
4422650.97488403,-799414.605613898,11874
4422650.97488403,-798701.171932351,11875
4422650.97488403,-797987.738250804,11877
4422650.97488403,-797274.304569257,11878
4422650.97488403,-796560.87088771,11879
4422650.97488403,-795847.437206163,11880
4422650.97488403,-795134.003524616,11882
4422650.97488403,-794420.488195817,11883
4422650.97488403,-793707.05451427,11885
4422650.97488403,-792993.620832723,11887
4422650.97488403,-792280.187151176,11889
4422650.97488403,-791566.753469629,11891
4422650.97488403,-790853.319788082,11894
4422650.97488403,-790139.886106535,11898
4422650.97488403,-789426.452424988,11902
4422650.97488403,-788712.93709619,11907
4422650.97488403,-787999.503414643,11912
4422650.97488403,-787286.069733096,11917
4422650.97488403,-786572.636051549,11922
4422650.97488403,-785859.202370002,11924
4422650.97488403,-785145.768688455,11927
4422650.97488403,-784432.335006908,11930
4422650.97488403,-783718.819678109,11934
4422650.97488403,-783005.385996562,11937
4422650.97488403,-782291.952315015,11941
4422650.97488403,-781578.518633468,11945
4422650.97488403,-780865.084951921,11949
4422650.97488403,-780151.651270374,11955
4422650.97488403,-779438.217588827,11961
4422650.97488403,-778724.78390728,11967
4422650.97488403,-778011.268578482,11972
4422650.97488403,-777297.834896935,11976
4422650.97488403,-776584.401215388,11978
4422650.97488403,-775870.967533841,11982
4422650.97488403,-775157.533852294,11994
4421723.11004639,-845177.257516903,9694
4421723.11004639,-844463.737588079,9734
4421723.11004639,-843750.217659255,9779
4421723.11004639,-843036.697730432,9810
4421723.11004639,-842323.096144486,9827
4421723.11004639,-841609.576215662,9850
4421723.11004639,-840896.056286839,9881
4421723.11004639,-840182.536358015,9912
4421723.11004639,-839469.016429191,9953
4421723.11004639,-838755.496500368,9994
4421723.11004639,-838041.976571544,10040
4421723.11004639,-837328.374985599,10088
4421723.11004639,-836614.855056775,10120
4421723.11004639,-835901.335127951,10149
4421723.11004639,-835187.815199127,10202
4421723.11004639,-834474.295270304,10284
4421723.11004639,-833760.77534148,10374
4421723.11004639,-833047.255412656,10466
4421723.11004639,-832333.735483833,10554
4421723.11004639,-831620.133897887,10617
4421723.11004639,-830906.613969064,10662
4421723.11004639,-830193.09404024,10718
4421723.11004639,-829479.574111416,10786
4421723.11004639,-828766.054182592,10850
4421723.11004639,-828052.534253769,10918
4421723.11004639,-827339.014324945,10987
4421723.11004639,-826625.412739,11038
4421723.11004639,-825911.892810176,11098
4421723.11004639,-825198.372881352,11190
4421723.11004639,-824484.852952529,11269
4421723.11004639,-823771.333023705,11304
4421723.11004639,-823057.813094881,11338
4421723.11004639,-822344.293166057,11419
4421723.11004639,-821630.773237234,11520
4421723.11004639,-820917.171651288,11607
4421723.11004639,-820203.651722465,11687
4421723.11004639,-819490.131793641,11752
4421723.11004639,-818776.611864817,11798
4421723.11004639,-818063.091935994,11823
4421723.11004639,-817349.57200717,11837
4421723.11004639,-816636.052078346,11843
4421723.11004639,-815922.450492401,11847
4421723.11004639,-815208.930563577,11850
4421723.11004639,-814495.410634753,11852
4421723.11004639,-813781.89070593,11854
4421723.11004639,-813068.370777106,11855
4421723.11004639,-812354.850848282,11857
4421723.11004639,-811641.330919459,11858
4421723.11004639,-810927.810990635,11859
4421723.11004639,-810214.209404689,11860
4421723.11004639,-809500.689475866,11861
4421723.11004639,-808787.169547042,11862
4421723.11004639,-808073.649618218,11863
4421723.11004639,-807360.129689395,11864
4421723.11004639,-806646.609760571,11865
4421723.11004639,-805933.089831747,11866
4421723.11004639,-805219.488245802,11866
4421723.11004639,-804505.968316978,11867
4421723.11004639,-803792.448388154,11868
4421723.11004639,-803078.928459331,11869
4421723.11004639,-802365.408530507,11870
4421723.11004639,-801651.888601683,11871
4421723.11004639,-800938.36867286,11872
4421723.11004639,-800224.848744036,11873
4421723.11004639,-799511.24715809,11874
4421723.11004639,-798797.727229267,11875
4421723.11004639,-798084.207300443,11876
4421723.11004639,-797370.687371619,11877
4421723.11004639,-796657.167442796,11878
4421723.11004639,-795943.647513972,11879
4421723.11004639,-795230.127585148,11881
4421723.11004639,-794516.525999203,11882
4421723.11004639,-793803.006070379,11884
4421723.11004639,-793089.486141555,11885
4421723.11004639,-792375.966212732,11887
4421723.11004639,-791662.446283908,11889
4421723.11004639,-790948.926355084,11892
4421723.11004639,-790235.406426261,11895
4421723.11004639,-789521.886497437,11898
4421723.11004639,-788808.284911492,11901
4421723.11004639,-788094.764982668,11903
4421723.11004639,-787381.245053844,11908
4421723.11004639,-786667.72512502,11915
4421723.11004639,-785954.205196197,11921
4421723.11004639,-785240.685267373,11926
4421723.11004639,-784527.165338549,11930
4421723.11004639,-783813.563752604,11934
4421723.11004639,-783100.04382378,11937
4421723.11004639,-782386.523894957,11942
4421723.11004639,-781673.003966133,11946
4421723.11004639,-780959.484037309,11951
4421723.11004639,-780245.964108485,11956
4421723.11004639,-779532.444179662,11962
4421723.11004639,-778818.924250838,11968
4421723.11004639,-778105.322664893,11973
4421723.11004639,-777391.802736069,11977
4421723.11004639,-776678.282807245,11979
4421723.11004639,-775964.762878422,11984
4420795.66986084,-845279.354345588,9704
4420795.66986084,-844565.74822405,9740
4420795.66986084,-843852.142102512,9771
4420795.66986084,-843138.535980974,9801
4420795.66986084,-842424.84819245,9830
4420795.66986084,-841711.242070912,9868
4420795.66986084,-840997.635949374,9914
4420795.66986084,-840284.029827836,9956
4420795.66986084,-839570.423706298,9992
4420795.66986084,-838856.81758476,10039
4420795.66986084,-838143.211463221,10100
4420795.66986084,-837429.523674698,10152
4420795.66986084,-836715.91755316,10191
4420795.66986084,-836002.311431622,10226
4420795.66986084,-835288.705310083,10264
4420795.66986084,-834575.099188545,10318
4420795.66986084,-833861.493067007,10389
4420795.66986084,-833147.886945469,10463
4420795.66986084,-832434.280823931,10525
4420795.66986084,-831720.593035407,10577
4420795.66986084,-831006.986913869,10614
4420795.66986084,-830293.380792331,10653
4420795.66986084,-829579.774670793,10724
4420795.66986084,-828866.168549255,10815
4420795.66986084,-828152.562427717,10911
4420795.66986084,-827438.956306179,10994
4420795.66986084,-826725.268517655,11041
4420795.66986084,-826011.662396117,11072
4420795.66986084,-825298.056274579,11122
4420795.66986084,-824584.450153041,11183
4420795.66986084,-823870.844031503,11245
4420795.66986084,-823157.237909965,11325
4420795.66986084,-822443.631788427,11432
4420795.66986084,-821730.025666889,11541
4420795.66986084,-821016.337878365,11636
4420795.66986084,-820302.731756827,11721
4420795.66986084,-819589.125635289,11785
4420795.66986084,-818875.519513751,11819
4420795.66986084,-818161.913392213,11831
4420795.66986084,-817448.307270675,11839
4420795.66986084,-816734.701149137,11844
4420795.66986084,-816021.013360613,11847
4420795.66986084,-815307.407239075,11850
4420795.66986084,-814593.801117537,11851
4420795.66986084,-813880.194995999,11853
4420795.66986084,-813166.58887446,11854
4420795.66986084,-812452.982752922,11856
4420795.66986084,-811739.376631384,11858
4420795.66986084,-811025.770509846,11859
4420795.66986084,-810312.082721322,11859
4420795.66986084,-809598.476599784,11860
4420795.66986084,-808884.870478246,11861
4420795.66986084,-808171.264356708,11862
4420795.66986084,-807457.65823517,11862
4420795.66986084,-806744.052113632,11862
4420795.66986084,-806030.445992094,11864
4420795.66986084,-805316.75820357,11865
4420795.66986084,-804603.152082032,11866
4420795.66986084,-803889.545960494,11867
4420795.66986084,-803175.939838956,11868
4420795.66986084,-802462.333717418,11869
4420795.66986084,-801748.72759588,11870
4420795.66986084,-801035.121474342,11871
4420795.66986084,-800321.515352804,11872
4420795.66986084,-799607.82756428,11873
4420795.66986084,-798894.221442742,11874
4420795.66986084,-798180.615321204,11875
4420795.66986084,-797467.009199666,11876
4420795.66986084,-796753.403078128,11878
4420795.66986084,-796039.79695659,11879
4420795.66986084,-795326.190835052,11880
4420795.66986084,-794612.503046528,11881
4420795.66986084,-793898.89692499,11883
4420795.66986084,-793185.290803452,11884
4420795.66986084,-792471.684681913,11886
4420795.66986084,-791758.078560375,11887
4420795.66986084,-791044.472438837,11889
4420795.66986084,-790330.866317299,11891
4420795.66986084,-789617.260195761,11893
4420795.66986084,-788903.572407237,11894
4420795.66986084,-788189.966285699,11894
4420795.66986084,-787476.360164161,11895
4420795.66986084,-786762.754042623,11903
4420795.66986084,-786049.147921085,11915
4420795.66986084,-785335.541799547,11923
4420795.66986084,-784621.935678009,11929
4420795.66986084,-783908.247889485,11934
4420795.66986084,-783194.641767947,11938
4420795.66986084,-782481.035646409,11943
4420795.66986084,-781767.429524871,11948
4420795.66986084,-781053.823403333,11953
4420795.66986084,-780340.217281795,11957
4420795.66986084,-779626.611160257,11963
4420795.66986084,-778913.005038719,11968
4420795.66986084,-778199.317250195,11973
4420795.66986084,-777485.711128657,11977
4420795.66986084,-776772.105007119,11981
4420795.66986084,-776058.498885581,11986
4419867.80502319,-845381.480037329,9746
4419867.80502319,-844667.78769871,9772
4419867.80502319,-843954.095360091,9787
4419867.80502319,-843240.403021471,9809
4419867.80502319,-842526.629005999,9837
4419867.80502319,-841812.93666738,9869
4419867.80502319,-841099.244328761,9909
4419867.80502319,-840385.551990141,9952
4419867.80502319,-839671.859651522,9998
4419867.80502319,-838958.167312903,10055
4419867.80502319,-838244.474974283,10115
4419867.80502319,-837530.700958811,10158
4419867.80502319,-836817.008620192,10203
4419867.80502319,-836103.316281573,10252
4419867.80502319,-835389.623942953,10289
4419867.80502319,-834675.931604334,10329
4419867.80502319,-833962.239265715,10383
4419867.80502319,-833248.546927095,10429
4419867.80502319,-832534.854588476,10461
4419867.80502319,-831821.080573004,10505
4419867.80502319,-831107.388234385,10542
4419867.80502319,-830393.695895765,10573
4419867.80502319,-829680.003557146,10627
4419867.80502319,-828966.311218527,10697
4419867.80502319,-828252.618879907,10773
4419867.80502319,-827538.926541288,10849
4419867.80502319,-826825.152525816,10911
4419867.80502319,-826111.460187197,10969
4419867.80502319,-825397.767848577,11042
4419867.80502319,-824684.075509958,11128
4419867.80502319,-823970.383171338,11238
4419867.80502319,-823256.690832719,11374
4419867.80502319,-822542.9984941,11499
4419867.80502319,-821829.30615548,11599
4419867.80502319,-821115.532140008,11687
4419867.80502319,-820401.839801389,11751
4419867.80502319,-819688.14746277,11796
4419867.80502319,-818974.455124151,11823
4419867.80502319,-818260.762785531,11834
4419867.80502319,-817547.070446912,11839
4419867.80502319,-816833.378108292,11843
4419867.80502319,-816119.60409282,11846
4419867.80502319,-815405.911754201,11848
4419867.80502319,-814692.219415582,11850
4419867.80502319,-813978.527076962,11852
4419867.80502319,-813264.834738343,11853
4419867.80502319,-812551.142399724,11855
4419867.80502319,-811837.450061104,11856
4419867.80502319,-811123.757722485,11857
4419867.80502319,-810409.983707013,11858
4419867.80502319,-809696.291368394,11859
4419867.80502319,-808982.599029774,11860
4419867.80502319,-808268.906691155,11861
4419867.80502319,-807555.214352536,11860
4419867.80502319,-806841.522013916,11859
4419867.80502319,-806127.829675297,11862
4419867.80502319,-805414.055659825,11864
4419867.80502319,-804700.363321206,11865
4419867.80502319,-803986.670982586,11867
4419867.80502319,-803272.978643967,11869
4419867.80502319,-802559.286305348,11872
4419867.80502319,-801845.593966728,11874
4419867.80502319,-801131.901628109,11872
4419867.80502319,-800418.20928949,11871
4419867.80502319,-799704.435274018,11873
4419867.80502319,-798990.742935398,11874
4419867.80502319,-798277.050596779,11875
4419867.80502319,-797563.35825816,11876
4419867.80502319,-796849.66591954,11877
4419867.80502319,-796135.973580921,11878
4419867.80502319,-795422.281242302,11879
4419867.80502319,-794708.50722683,11881
4419867.80502319,-793994.81488821,11882
4419867.80502319,-793281.122549591,11883
4419867.80502319,-792567.430210972,11884
4419867.80502319,-791853.737872352,11886
4419867.80502319,-791140.045533733,11886
4419867.80502319,-790426.353195113,11887
4419867.80502319,-789712.660856494,11888
4419867.80502319,-788998.886841022,11887
4419867.80502319,-788285.194502403,11885
4419867.80502319,-787571.502163784,11886
4419867.80502319,-786857.809825164,11896
4419867.80502319,-786144.117486545,11910
4419867.80502319,-785430.425147926,11922
4419867.80502319,-784716.732809306,11930
4419867.80502319,-784002.958793834,11936
4419867.80502319,-783289.266455215,11940
4419867.80502319,-782575.574116595,11945
4419867.80502319,-781861.881777976,11951
4419867.80502319,-781148.189439357,11956
4419867.80502319,-780434.497100737,11960
4419867.80502319,-779720.804762118,11965
4419867.80502319,-779007.112423499,11968
4419867.80502319,-778293.338408027,11972
4419867.80502319,-777579.646069407,11977
4419867.80502319,-776865.953730788,11983
4419867.80502319,-776152.261392169,11989
4418940.36483765,-845483.541111074,9832
4418940.36483765,-844769.762609925,9855
4418940.36483765,-844055.984108777,9872
4418940.36483765,-843342.205607628,9875
4418940.36483765,-842628.345419766,9881
4418940.36483765,-841914.566918618,9895
4418940.36483765,-841200.788417469,9912
4418940.36483765,-840487.009916321,9936
4418940.36483765,-839773.231415172,9980
4418940.36483765,-839059.452914024,10033
4418940.36483765,-838345.674412876,10077
4418940.36483765,-837631.814225014,10118
4418940.36483765,-836918.035723865,10172
4418940.36483765,-836204.257222717,10229
4418940.36483765,-835490.478721568,10273
4418940.36483765,-834776.70022042,10314
4418940.36483765,-834062.921719271,10370
4418940.36483765,-833349.143218123,10422
4418940.36483765,-832635.364716974,10463
4418940.36483765,-831921.504529113,10516
4418940.36483765,-831207.726027964,10565
4418940.36483765,-830493.947526816,10598
4418940.36483765,-829780.169025667,10639
4418940.36483765,-829066.390524519,10684
4418940.36483765,-828352.61202337,10738
4418940.36483765,-827638.833522222,10812
4418940.36483765,-826924.97333436,10882
4418940.36483765,-826211.194833211,10948
4418940.36483765,-825497.416332063,11039
4418940.36483765,-824783.637830914,11167
4418940.36483765,-824069.859329766,11316
4418940.36483765,-823356.080828618,11467
4418940.36483765,-822642.302327469,11583
4418940.36483765,-821928.523826321,11667
4418940.36483765,-821214.663638459,11738
4418940.36483765,-820500.88513731,11789
4418940.36483765,-819787.106636162,11817
4418940.36483765,-819073.328135013,11828
4418940.36483765,-818359.549633865,11834
4418940.36483765,-817645.771132716,11838
4418940.36483765,-816931.992631568,11841
4418940.36483765,-816218.132443706,11844
4418940.36483765,-815504.353942558,11846
4418940.36483765,-814790.575441409,11848
4418940.36483765,-814076.796940261,11849
4418940.36483765,-813363.018439112,11851
4418940.36483765,-812649.239937964,11852
4418940.36483765,-811935.461436815,11854
4418940.36483765,-811221.682935667,11855
4418940.36483765,-810507.822747805,11856
4418940.36483765,-809794.044246657,11857
4418940.36483765,-809080.265745508,11859
4418940.36483765,-808366.48724436,11859
4418940.36483765,-807652.708743211,11859
4418940.36483765,-806938.930242063,11860
4418940.36483765,-806225.151740914,11862
4418940.36483765,-805511.291553052,11863
4418940.36483765,-804797.513051904,11864
4418940.36483765,-804083.734550755,11867
4418940.36483765,-803369.956049607,11870
4418940.36483765,-802656.177548458,11874
4418940.36483765,-801942.39904731,11876
4418940.36483765,-801228.620546162,11872
4418940.36483765,-800514.842045013,11870
4418940.36483765,-799800.981857151,11871
4418940.36483765,-799087.203356003,11872
4418940.36483765,-798373.424854854,11873
4418940.36483765,-797659.646353706,11874
4418940.36483765,-796945.867852557,11875
4418940.36483765,-796232.089351409,11877
4418940.36483765,-795518.31085026,11878
4418940.36483765,-794804.450662399,11879
4418940.36483765,-794090.67216125,11881
4418940.36483765,-793376.893660102,11882
4418940.36483765,-792663.115158953,11883
4418940.36483765,-791949.336657805,11883
4418940.36483765,-791235.558156656,11884
4418940.36483765,-790521.779655508,11885
4418940.36483765,-789808.001154359,11881
4418940.36483765,-789094.140966497,11868
4418940.36483765,-788380.362465349,11867
4418940.36483765,-787666.583964201,11883
4418940.36483765,-786952.805463052,11900
4418940.36483765,-786239.026961904,11914
4418940.36483765,-785525.248460755,11925
4418940.36483765,-784811.469959607,11932
4418940.36483765,-784097.609771745,11937
4418940.36483765,-783383.831270596,11942
4418940.36483765,-782670.052769448,11946
4418940.36483765,-781956.274268299,11952
4418940.36483765,-781242.495767151,11958
4418940.36483765,-780528.717266002,11962
4418940.36483765,-779814.938764854,11966
4418940.36483765,-779101.160263706,11968
4418940.36483765,-778387.300075844,11971
4418940.36483765,-777673.521574695,11978
4418940.36483765,-776959.743073547,11985
4418940.36483765,-776245.964572398,11995
4418012.5,-845585.631027182,9905
4418012.5,-844871.766339155,9929
4418012.5,-844157.901651128,9968
4418012.5,-843444.036963101,9979
4418012.5,-842730.090578497,9974
4418012.5,-842016.22589047,9979
4418012.5,-841302.361202443,9987
4418012.5,-840588.496514416,10004
4418012.5,-839874.631826389,10039
4418012.5,-839160.767138362,10080
4418012.5,-838446.902450335,10111
4418012.5,-837732.956065731,10143
4418012.5,-837019.091377704,10183
4418012.5,-836305.226689677,10229
4418012.5,-835591.36200165,10272
4418012.5,-834877.497313623,10314
4418012.5,-834163.632625596,10369
4418012.5,-833449.767937569,10433
4418012.5,-832735.903249542,10494
4418012.5,-832021.956864938,10557
4418012.5,-831308.092176911,10616
4418012.5,-830594.227488884,10661
4418012.5,-829880.362800857,10713
4418012.5,-829166.49811283,10782
4418012.5,-828452.633424803,10867
4418012.5,-827738.768736776,10964
4418012.5,-827024.822352172,11043
4418012.5,-826310.957664145,11090
4418012.5,-825597.092976118,11137
4418012.5,-824883.228288091,11235
4418012.5,-824169.363600063,11384
4418012.5,-823455.498912036,11536
4418012.5,-822741.634224009,11648
4418012.5,-822027.769535982,11720
4418012.5,-821313.823151379,11771
4418012.5,-820599.958463351,11803
4418012.5,-819886.093775324,11821
4418012.5,-819172.229087297,11828
4418012.5,-818458.36439927,11832
4418012.5,-817744.499711243,11836
4418012.5,-817030.635023216,11839
4418012.5,-816316.688638612,11842
4418012.5,-815602.823950585,11844
4418012.5,-814888.959262558,11845
4418012.5,-814175.094574531,11846
4418012.5,-813461.229886504,11847
4418012.5,-812747.365198477,11849
4418012.5,-812033.50051045,11851
4418012.5,-811319.635822423,11852
4418012.5,-810605.689437819,11854
4418012.5,-809891.824749792,11856
4418012.5,-809177.960061765,11857
4418012.5,-808464.095373738,11857
4418012.5,-807750.230685711,11859
4418012.5,-807036.365997684,11860
4418012.5,-806322.501309657,11861
4418012.5,-805608.554925053,11862
4418012.5,-804894.690237026,11863
4418012.5,-804180.825548999,11865
4418012.5,-803466.960860972,11866
4418012.5,-802753.096172945,11868
4418012.5,-802039.231484918,11868
4418012.5,-801325.366796891,11868
4418012.5,-800611.502108863,11868
4418012.5,-799897.55572426,11869
4418012.5,-799183.691036233,11871
4418012.5,-798469.826348205,11872
4418012.5,-797755.961660178,11873
4418012.5,-797042.096972151,11874
4418012.5,-796328.232284124,11875
4418012.5,-795614.367596097,11876
4418012.5,-794900.421211493,11878
4418012.5,-794186.556523466,11879
4418012.5,-793472.691835439,11880
4418012.5,-792758.827147412,11880
4418012.5,-792044.962459385,11881
4418012.5,-791331.097771358,11882
4418012.5,-790617.233083331,11873
4418012.5,-789903.368395304,11856
4418012.5,-789189.4220107,11835
4418012.5,-788475.557322673,11845
4418012.5,-787761.692634646,11885
4418012.5,-787047.827946619,11909
4418012.5,-786333.963258592,11921
4418012.5,-785620.098570565,11929
4418012.5,-784906.233882538,11933
4418012.5,-784192.287497934,11937
4418012.5,-783478.422809907,11941
4418012.5,-782764.55812188,11946
4418012.5,-782050.693433853,11953
4418012.5,-781336.828745826,11959
4418012.5,-780622.964057799,11963
4418012.5,-779909.099369772,11967
4418012.5,-779195.234681745,11969
4418012.5,-778481.288297141,11973
4418012.5,-777767.423609114,11982
4418012.5,-777053.558921087,11988
4417084.63516235,-845687.70304814,9950
4417084.63516235,-844973.752188342,9971
4417084.63516235,-844259.801328544,10018
4417084.63516235,-843545.850468746,10058
4417084.63516235,-842831.817902509,10065
4417084.63516235,-842117.867042711,10067
4417084.63516235,-841403.916182913,10076
4417084.63516235,-840689.965323115,10099
4417084.63516235,-839976.014463317,10144
4417084.63516235,-839262.063603519,10185
4417084.63516235,-838548.112743721,10215
4417084.63516235,-837834.080177484,10244
4417084.63516235,-837120.129317686,10271
4417084.63516235,-836406.178457888,10296
4417084.63516235,-835692.22759809,10318
4417084.63516235,-834978.276738292,10338
4417084.63516235,-834264.325878494,10371
4417084.63516235,-833550.375018696,10418
4417084.63516235,-832836.424158897,10465
4417084.63516235,-832122.391592661,10516
4417084.63516235,-831408.440732863,10572
4417084.63516235,-830694.489873065,10622
4417084.63516235,-829980.539013267,10677
4417084.63516235,-829266.588153468,10765
4417084.63516235,-828552.63729367,10901
4417084.63516235,-827838.686433872,11045
4417084.63516235,-827124.653867636,11153
4417084.63516235,-826410.703007838,11225
4417084.63516235,-825696.752148039,11273
4417084.63516235,-824982.801288241,11338
4417084.63516235,-824268.850428443,11452
4417084.63516235,-823554.899568645,11570
4417084.63516235,-822840.948708847,11665
4417084.63516235,-822126.997849049,11747
4417084.63516235,-821412.965282812,11793
4417084.63516235,-820699.014423014,11810
4417084.63516235,-819985.063563216,11825
4417084.63516235,-819271.112703418,11833
4417084.63516235,-818557.16184362,11836
4417084.63516235,-817843.210983822,11838
4417084.63516235,-817129.260124024,11838
4417084.63516235,-816415.227557787,11839
4417084.63516235,-815701.276697989,11840
4417084.63516235,-814987.325838191,11840
4417084.63516235,-814273.374978393,11841
4417084.63516235,-813559.424118595,11842
4417084.63516235,-812845.473258797,11844
4417084.63516235,-812131.522398998,11847
4417084.63516235,-811417.5715392,11850
4417084.63516235,-810703.538972964,11852
4417084.63516235,-809989.588113166,11854
4417084.63516235,-809275.637253367,11855
4417084.63516235,-808561.686393569,11857
4417084.63516235,-807847.735533771,11858
4417084.63516235,-807133.784673973,11859
4417084.63516235,-806419.833814175,11860
4417084.63516235,-805705.801247938,11860
4417084.63516235,-804991.85038814,11862
4417084.63516235,-804277.899528342,11863
4417084.63516235,-803563.948668544,11864
4417084.63516235,-802849.997808746,11864
4417084.63516235,-802136.046948948,11865
4417084.63516235,-801422.09608915,11866
4417084.63516235,-800708.145229352,11867
4417084.63516235,-799994.112663115,11868
4417084.63516235,-799280.161803317,11869
4417084.63516235,-798566.210943519,11871
4417084.63516235,-797852.260083721,11871
4417084.63516235,-797138.309223923,11874
4417084.63516235,-796424.358364125,11875
4417084.63516235,-795710.407504326,11874
4417084.63516235,-794996.37493809,11876
4417084.63516235,-794282.424078292,11876
4417084.63516235,-793568.473218494,11878
4417084.63516235,-792854.522358696,11880
4417084.63516235,-792140.571498897,11880
4417084.63516235,-791426.620639099,11879
4417084.63516235,-790712.669779301,11850
4417084.63516235,-789998.718919503,11826
4417084.63516235,-789284.686353266,11830
4417084.63516235,-788570.735493468,11858
4417084.63516235,-787856.78463367,11897
4417084.63516235,-787142.833773872,11914
4417084.63516235,-786428.882914074,11923
4417084.63516235,-785714.932054276,11930
4417084.63516235,-785000.981194478,11934
4417084.63516235,-784286.948628241,11937
4417084.63516235,-783572.997768443,11941
4417084.63516235,-782859.046908645,11946
4417084.63516235,-782145.096048847,11953
4417084.63516235,-781431.145189049,11959
4417084.63516235,-780717.194329251,11964
4417084.63516235,-780003.243469453,11968
4417084.63516235,-779289.292609654,11972
4417084.63516235,-778575.260043418,11978
4417084.63516235,-777861.30918362,11985
4417084.63516235,-777147.358323822,11990
4416157.19497681,-845789.710469188,9996
4416157.19497681,-845075.673492156,10020
4416157.19497681,-844361.636515124,10054
4416157.19497681,-843647.599538091,10099
4416157.19497681,-842933.480844765,10116
4416157.19497681,-842219.443867733,10126
4416157.19497681,-841505.4068907,10141
4416157.19497681,-840791.369913668,10158
4416157.19497681,-840077.332936636,10201
4416157.19497681,-839363.295959604,10248
4416157.19497681,-838649.258982571,10284
4416157.19497681,-837935.140289245,10319
4416157.19497681,-837221.103312213,10352
4416157.19497681,-836507.066335181,10384
4416157.19497681,-835793.029358148,10400
4416157.19497681,-835078.992381116,10404
4416157.19497681,-834364.955404084,10433
4416157.19497681,-833650.918427051,10463
4416157.19497681,-832936.881450019,10475
4416157.19497681,-832222.762756693,10506
4416157.19497681,-831508.725779661,10562
4416157.19497681,-830794.688802628,10612
4416157.19497681,-830080.651825596,10652
4416157.19497681,-829366.614848564,10714
4416157.19497681,-828652.577871531,10823
4416157.19497681,-827938.540894499,10962
4416157.19497681,-827224.422201173,11092
4416157.19497681,-826510.385224141,11197
4416157.19497681,-825796.348247108,11279
4416157.19497681,-825082.311270076,11350
4416157.19497681,-824368.274293044,11437
4416157.19497681,-823654.237316011,11527
4416157.19497681,-822940.200338979,11632
4416157.19497681,-822226.163361947,11748
4416157.19497681,-821512.044668621,11803
4416157.19497681,-820798.007691588,11814
4416157.19497681,-820083.970714556,11826
4416157.19497681,-819369.933737524,11839
4416157.19497681,-818655.896760492,11843
4416157.19497681,-817941.859783459,11843
4416157.19497681,-817227.822806427,11838
4416157.19497681,-816513.704113101,11834
4416157.19497681,-815799.667136068,11833
4416157.19497681,-815085.630159036,11833
4416157.19497681,-814371.593182004,11834
4416157.19497681,-813657.556204972,11837
4416157.19497681,-812943.519227939,11841
4416157.19497681,-812229.482250907,11844
4416157.19497681,-811515.445273875,11848
4416157.19497681,-810801.326580548,11850
4416157.19497681,-810087.289603516,11852
4416157.19497681,-809373.252626484,11853
4416157.19497681,-808659.215649452,11854
4416157.19497681,-807945.178672419,11856
4416157.19497681,-807231.141695387,11857
4416157.19497681,-806517.104718355,11857
4416157.19497681,-805802.986025028,11858
4416157.19497681,-805088.949047996,11860
4416157.19497681,-804374.912070964,11862
4416157.19497681,-803660.875093932,11863
4416157.19497681,-802946.838116899,11864
4416157.19497681,-802232.801139867,11864
4416157.19497681,-801518.764162835,11865
4416157.19497681,-800804.727185803,11866
4416157.19497681,-800090.608492476,11867
4416157.19497681,-799376.571515444,11868
4416157.19497681,-798662.534538412,11869
4416157.19497681,-797948.497561379,11870
4416157.19497681,-797234.460584347,11873
4416157.19497681,-796520.423607315,11874
4416157.19497681,-795806.386630283,11873
4416157.19497681,-795092.267936956,11874
4416157.19497681,-794378.230959924,11874
4416157.19497681,-793664.193982892,11878
4416157.19497681,-792950.157005859,11874
4416157.19497681,-792236.120028827,11861
4416157.19497681,-791522.083051795,11838
4416157.19497681,-790808.046074763,11803
4416157.19497681,-790094.00909773,11811
4416157.19497681,-789379.890404404,11854
4416157.19497681,-788665.853427372,11889
4416157.19497681,-787951.816450339,11911
4416157.19497681,-787237.779473307,11917
4416157.19497681,-786523.742496275,11924
4416157.19497681,-785809.705519243,11930
4416157.19497681,-785095.66854221,11935
4416157.19497681,-784381.549848884,11937
4416157.19497681,-783667.512871852,11941
4416157.19497681,-782953.475894819,11947
4416157.19497681,-782239.438917787,11954
4416157.19497681,-781525.401940755,11959
4416157.19497681,-780811.364963723,11965
4416157.19497681,-780097.32798669,11971
4416157.19497681,-779383.291009658,11976
4416157.19497681,-778669.172316332,11982
4416157.19497681,-777955.1353393,11986
4416157.19497681,-777241.098362267,11996
4415229.33013916,-845891.746701556,10041
4415229.33013916,-845177.623582967,10070
4415229.33013916,-844463.500464377,10095
4415229.33013916,-843749.377345787,10125
4415229.33013916,-843035.172501045,10151
4415229.33013916,-842321.049382456,10172
4415229.33013916,-841606.926263866,10190
4415229.33013916,-840892.803145276,10202
4415229.33013916,-840178.680026687,10237
4415229.33013916,-839464.556908097,10283
4415229.33013916,-838750.433789507,10317
4415229.33013916,-838036.228944765,10345
4415229.33013916,-837322.105826176,10394
4415229.33013916,-836607.982707586,10458
4415229.33013916,-835893.859588996,10476
4415229.33013916,-835179.736470406,10473
4415229.33013916,-834465.613351817,10507
4415229.33013916,-833751.490233227,10534
4415229.33013916,-833037.367114637,10531
4415229.33013916,-832323.162269895,10559
4415229.33013916,-831609.039151306,10642
4415229.33013916,-830894.916032716,10726
4415229.33013916,-830180.792914126,10791
4415229.33013916,-829466.669795537,10851
4415229.33013916,-828752.546676947,10893
4415229.33013916,-828038.423558357,10945
4415229.33013916,-827324.218713615,11022
4415229.33013916,-826610.095595025,11087
4415229.33013916,-825895.972476436,11159
4415229.33013916,-825181.849357846,11241
4415229.33013916,-824467.726239256,11339
4415229.33013916,-823753.603120667,11462
4415229.33013916,-823039.480002077,11614
4415229.33013916,-822325.356883487,11752
4415229.33013916,-821611.152038745,11811
4415229.33013916,-820897.028920156,11817
4415229.33013916,-820182.905801566,11823
4415229.33013916,-819468.782682976,11833
4415229.33013916,-818754.659564386,11838
4415229.33013916,-818040.536445797,11840
4415229.33013916,-817326.413327207,11837
4415229.33013916,-816612.208482465,11828
4415229.33013916,-815898.085363875,11820
4415229.33013916,-815183.962245286,11821
4415229.33013916,-814469.839126696,11827
4415229.33013916,-813755.716008106,11833
4415229.33013916,-813041.592889517,11839
4415229.33013916,-812327.469770927,11844
4415229.33013916,-811613.346652337,11847
4415229.33013916,-810899.141807595,11850
4415229.33013916,-810185.018689006,11853
4415229.33013916,-809470.895570416,11856
4415229.33013916,-808756.772451826,11860
4415229.33013916,-808042.649333237,11863
4415229.33013916,-807328.526214647,11858
4415229.33013916,-806614.403096057,11854
4415229.33013916,-805900.198251315,11856
4415229.33013916,-805186.075132725,11859
4415229.33013916,-804471.952014136,11860
4415229.33013916,-803757.828895546,11860
4415229.33013916,-803043.705776956,11861
4415229.33013916,-802329.582658367,11862
4415229.33013916,-801615.459539777,11864
4415229.33013916,-800901.336421187,11865
4415229.33013916,-800187.131576445,11865
4415229.33013916,-799473.008457856,11866
4415229.33013916,-798758.885339266,11868
4415229.33013916,-798044.762220676,11869
4415229.33013916,-797330.639102087,11870
4415229.33013916,-796616.515983497,11870
4415229.33013916,-795902.392864907,11872
4415229.33013916,-795188.188020165,11872
4415229.33013916,-794474.064901575,11872
4415229.33013916,-793759.941782986,11873
4415229.33013916,-793045.818664396,11853
4415229.33013916,-792331.695545806,11827
4415229.33013916,-791617.572427217,11816
4415229.33013916,-790903.449308627,11805
4415229.33013916,-790189.326190037,11839
4415229.33013916,-789475.121345295,11887
4415229.33013916,-788760.998226706,11908
4415229.33013916,-788046.875108116,11919
4415229.33013916,-787332.751989526,11920
4415229.33013916,-786618.628870936,11926
4415229.33013916,-785904.505752347,11931
4415229.33013916,-785190.382633757,11934
4415229.33013916,-784476.177789015,11938
4415229.33013916,-783762.054670425,11944
4415229.33013916,-783047.931551836,11950
4415229.33013916,-782333.808433246,11954
4415229.33013916,-781619.685314656,11959
4415229.33013916,-780905.562196067,11966
4415229.33013916,-780191.439077477,11973
4415229.33013916,-779477.315958887,11979
4415229.33013916,-778763.111114145,11984
4415229.33013916,-778048.987995556,11987
4414301.88995361,-845993.718346079,10080
4414301.88995361,-845279.509140458,10106
4414301.88995361,-844565.299934838,10126
4414301.88995361,-843851.090729217,10152
4414301.88995361,-843136.799787593,10186
4414301.88995361,-842422.590581972,10210
4414301.88995361,-841708.381376352,10223
4414301.88995361,-840994.172170731,10250
4414301.88995361,-840279.962965111,10294
4414301.88995361,-839565.753759491,10331
4414301.88995361,-838851.54455387,10351
4414301.88995361,-838137.253612245,10380
4414301.88995361,-837423.044406625,10438
4414301.88995361,-836708.835201005,10491
4414301.88995361,-835994.625995384,10499
4414301.88995361,-835280.416789764,10510
4414301.88995361,-834566.207584143,10550
4414301.88995361,-833851.998378523,10567
4414301.88995361,-833137.789172902,10550
4414301.88995361,-832423.498231278,10589
4414301.88995361,-831709.289025657,10713
4414301.88995361,-830995.079820037,10825
4414301.88995361,-830280.870614416,10914
4414301.88995361,-829566.661408796,11007
4414301.88995361,-828852.452203176,11065
4414301.88995361,-828138.242997555,11095
4414301.88995361,-827423.95205593,11099
4414301.88995361,-826709.74285031,11101
4414301.88995361,-825995.533644689,11168
4414301.88995361,-825281.324439069,11267
4414301.88995361,-824567.115233449,11373
4414301.88995361,-823852.906027828,11499
4414301.88995361,-823138.696822208,11642
4414301.88995361,-822424.487616587,11770
4414301.88995361,-821710.196674963,11817
4414301.88995361,-820995.987469342,11806
4414301.88995361,-820281.778263722,11795
4414301.88995361,-819567.569058101,11790
4414301.88995361,-818853.359852481,11786
4414301.88995361,-818139.15064686,11789
4414301.88995361,-817424.94144124,11794
4414301.88995361,-816710.650499615,11794
4414301.88995361,-815996.441293995,11793
4414301.88995361,-815282.232088374,11804
4414301.88995361,-814568.022882754,11819
4414301.88995361,-813853.813677134,11829
4414301.88995361,-813139.604471513,11837
4414301.88995361,-812425.395265893,11843
4414301.88995361,-811711.186060272,11847
4414301.88995361,-810996.895118647,11850
4414301.88995361,-810282.685913027,11855
4414301.88995361,-809568.476707407,11858
4414301.88995361,-808854.267501786,11862
4414301.88995361,-808140.058296166,11863
4414301.88995361,-807425.849090545,11857
4414301.88995361,-806711.639884925,11854
4414301.88995361,-805997.3489433,11855
4414301.88995361,-805283.13973768,11856
4414301.88995361,-804568.930532059,11855
4414301.88995361,-803854.721326439,11852
4414301.88995361,-803140.512120818,11849
4414301.88995361,-802426.302915198,11849
4414301.88995361,-801712.093709578,11857
4414301.88995361,-800997.884503957,11864
4414301.88995361,-800283.593562332,11864
4414301.88995361,-799569.384356712,11865
4414301.88995361,-798855.175151092,11866
4414301.88995361,-798140.965945471,11867
4414301.88995361,-797426.756739851,11869
4414301.88995361,-796712.54753423,11869
4414301.88995361,-795998.33832861,11869
4414301.88995361,-795284.047386985,11867
4414301.88995361,-794569.838181365,11855
4414301.88995361,-793855.628975744,11835
4414301.88995361,-793141.419770124,11799
4414301.88995361,-792427.210564503,11781
4414301.88995361,-791713.001358883,11837
4414301.88995361,-790998.792153263,11869
4414301.88995361,-790284.582947642,11877
4414301.88995361,-789570.292006017,11900
4414301.88995361,-788856.082800397,11904
4414301.88995361,-788141.873594777,11913
4414301.88995361,-787427.664389156,11915
4414301.88995361,-786713.455183536,11920
4414301.88995361,-785999.245977915,11929
4414301.88995361,-785285.036772295,11934
4414301.88995361,-784570.74583067,11941
4414301.88995361,-783856.53662505,11949
4414301.88995361,-783142.327419429,11952
4414301.88995361,-782428.118213809,11955
4414301.88995361,-781713.909008188,11961
4414301.88995361,-780999.699802568,11969
4414301.88995361,-780285.490596947,11975
4414301.88995361,-779571.281391327,11980
4414301.88995361,-778856.990449702,11984
4414301.88995361,-778142.781244082,11986
4413374.02511597,-846095.718781224,10135
4413374.02511597,-845381.423464267,10150
4413374.02511597,-844667.12814731,10167
4413374.02511597,-843952.832830353,10196
4413374.02511597,-843238.455767537,10230
4413374.02511597,-842524.16045058,10251
4413374.02511597,-841809.865133623,10267
4413374.02511597,-841095.569816666,10303
4413374.02511597,-840381.274499709,10343
4413374.02511597,-839666.979182752,10364
4413374.02511597,-838952.683865795,10385
4413374.02511597,-838238.306802979,10428
4413374.02511597,-837524.011486022,10472
4413374.02511597,-836809.716169065,10487
4413374.02511597,-836095.420852109,10493
4413374.02511597,-835381.125535152,10523
4413374.02511597,-834666.830218195,10565
4413374.02511597,-833952.534901238,10563
4413374.02511597,-833238.239584281,10521
4413374.02511597,-832523.862521465,10567
4413374.02511597,-831809.567204508,10718
4413374.02511597,-831095.271887551,10840
4413374.02511597,-830380.976570594,10937
4413374.02511597,-829666.681253637,11042
4413374.02511597,-828952.38593668,11132
4413374.02511597,-828238.090619723,11174
4413374.02511597,-827523.713556907,11146
4413374.02511597,-826809.41823995,11156
4413374.02511597,-826095.122922993,11269
4413374.02511597,-825380.827606036,11389
4413374.02511597,-824666.532289079,11483
4413374.02511597,-823952.236972122,11569
4413374.02511597,-823237.941655166,11677
4413374.02511597,-822523.646338209,11787
4413374.02511597,-821809.269275393,11801
4413374.02511597,-821094.973958436,11753
4413374.02511597,-820380.678641479,11716
4413374.02511597,-819666.383324522,11691
4413374.02511597,-818952.088007565,11677
4413374.02511597,-818237.792690608,11683
4413374.02511597,-817523.497373651,11707
4413374.02511597,-816809.120310835,11731
4413374.02511597,-816094.824993878,11758
4413374.02511597,-815380.529676921,11791
4413374.02511597,-814666.234359964,11814
4413374.02511597,-813951.939043007,11825
4413374.02511597,-813237.64372605,11834
4413374.02511597,-812523.348409093,11841
4413374.02511597,-811809.053092136,11844
4413374.02511597,-811094.67602932,11848
4413374.02511597,-810380.380712363,11850
4413374.02511597,-809666.085395406,11852
4413374.02511597,-808951.79007845,11852
4413374.02511597,-808237.494761493,11851
4413374.02511597,-807523.199444536,11852
4413374.02511597,-806808.904127579,11855
4413374.02511597,-806094.527064763,11854
4413374.02511597,-805380.231747806,11847
4413374.02511597,-804665.936430849,11837
4413374.02511597,-803951.641113892,11836
4413374.02511597,-803237.345796935,11839
4413374.02511597,-802523.050479978,11840
4413374.02511597,-801808.755163021,11852
4413374.02511597,-801094.459846064,11862
4413374.02511597,-800380.082783248,11864
4413374.02511597,-799665.787466291,11865
4413374.02511597,-798951.492149334,11865
4413374.02511597,-798237.196832377,11867
4413374.02511597,-797522.90151542,11869
4413374.02511597,-796808.606198463,11867
4413374.02511597,-796094.310881507,11862
4413374.02511597,-795379.933818691,11861
4413374.02511597,-794665.638501734,11826
4413374.02511597,-793951.343184777,11735
4413374.02511597,-793237.04786782,11650
4413374.02511597,-792522.752550863,11634
4413374.02511597,-791808.457233906,11720
4413374.02511597,-791094.161916949,11834
4413374.02511597,-790379.866599992,11875
4413374.02511597,-789665.489537176,11885
4413374.02511597,-788951.194220219,11894
4413374.02511597,-788236.898903262,11895
4413374.02511597,-787522.603586305,11894
4413374.02511597,-786808.308269348,11902
4413374.02511597,-786094.012952391,11926
4413374.02511597,-785379.717635434,11939
4413374.02511597,-784665.340572618,11949
4413374.02511597,-783951.045255661,11953
4413374.02511597,-783236.749938705,11953
4413374.02511597,-782522.454621748,11957
4413374.02511597,-781808.159304791,11964
4413374.02511597,-781093.863987834,11971
4413374.02511597,-780379.568670877,11975
4413374.02511597,-779665.27335392,11981
4413374.02511597,-778950.896291104,11984
4413374.02511597,-778236.600974147,11993
4412446.58493042,-846197.654640592,10178
4412446.58493042,-845483.273266815,10184
4412446.58493042,-844768.891893038,10201
4412446.58493042,-844054.510519261,10233
4412446.58493042,-843340.047389777,10264
4412446.58493042,-842625.666016,10277
4412446.58493042,-841911.284642223,10299
4412446.58493042,-841196.903268446,10338
4412446.58493042,-840482.521894669,10366
4412446.58493042,-839768.140520892,10386
4412446.58493042,-839053.759147115,10428
4412446.58493042,-838339.29601763,10474
4412446.58493042,-837624.914643854,10485
4412446.58493042,-836910.533270077,10468
4412446.58493042,-836196.1518963,10463
4412446.58493042,-835481.770522523,10487
4412446.58493042,-834767.389148746,10513
4412446.58493042,-834053.007774969,10495
4412446.58493042,-833338.626401192,10452
4412446.58493042,-832624.163271707,10475
4412446.58493042,-831909.78189793,10576
4412446.58493042,-831195.400524153,10682
4412446.58493042,-830481.019150377,10783
4412446.58493042,-829766.6377766,10875
4412446.58493042,-829052.256402823,10955
4412446.58493042,-828337.875029046,10998
4412446.58493042,-827623.411899561,10992
4412446.58493042,-826909.030525784,11049
4412446.58493042,-826194.649152007,11206
4412446.58493042,-825480.26777823,11354
4412446.58493042,-824765.886404453,11432
4412446.58493042,-824051.505030676,11495
4412446.58493042,-823337.1236569,11583
4412446.58493042,-822622.742283123,11653
4412446.58493042,-821908.279153638,11660
4412446.58493042,-821193.897779861,11630
4412446.58493042,-820479.516406084,11594
4412446.58493042,-819765.135032307,11561
4412446.58493042,-819050.75365853,11547
4412446.58493042,-818336.372284753,11564
4412446.58493042,-817621.990910976,11623
4412446.58493042,-816907.527781492,11684
4412446.58493042,-816193.146407715,11737
4412446.58493042,-815478.765033938,11784
4412446.58493042,-814764.383660161,11811
4412446.58493042,-814050.002286384,11824
4412446.58493042,-813335.620912607,11834
