X,Y,Z
4308547.80502319,-2446545.44633835,12397
4308547.80502319,-2445821.52028956,12270
4308547.80502319,-2444373.66819199,12021
4308547.80502319,-2443649.7421432,12037
4307620.36483765,-2451898.54413869,12120
4307620.36483765,-2451174.53375176,12211
4307620.36483765,-2450450.52336483,12283
4307620.36483765,-2449726.51297791,12344
4307620.36483765,-2449002.50259098,12401
4307620.36483765,-2448278.49220405,12496
4307620.36483765,-2447554.48181713,12558
4307620.36483765,-2446830.4714302,12570
4307620.36483765,-2446106.46104328,12547
4307620.36483765,-2445382.45065635,12511
4307620.36483765,-2444658.44026942,12406
4307620.36483765,-2443934.4298825,12232
4307620.36483765,-2443210.25378022,12105
4307620.36483765,-2441762.23300636,12009
4306692.5,-2451460.14374773,12140
4306692.5,-2450736.04899937,12217
4306692.5,-2450011.95425101,12289
4306692.5,-2449287.85950264,12347
4306692.5,-2448563.76475428,12404
4306692.5,-2447839.67000592,12508
4306692.5,-2447115.57525756,12584
4306692.5,-2446391.48050919,12684
4306692.5,-2445667.38576083,12687
4306692.5,-2444943.29101247,12672
4306692.5,-2444219.19626411,12592
4306692.5,-2443494.93578108,12532
4306692.5,-2442770.84103272,12445
4306692.5,-2442046.74628436,12363
4306692.5,-2441322.65153599,12211
4305764.63516235,-2450297.34367444,12150
4305764.63516235,-2448848.98548549,12374
4305764.63516235,-2448124.80639101,12435
4305764.63516235,-2447400.62729654,12505
4305764.63516235,-2446676.44820207,12587
4305764.63516235,-2445952.26910759,12707
4305764.63516235,-2445228.09001312,12794
4305764.63516235,-2444503.91091864,12765
4305764.63516235,-2443779.5660702,12691
4305764.63516235,-2443055.38697572,12637
4305764.63516235,-2442331.20788125,12583
4305764.63516235,-2441607.02878677,12521
4305764.63516235,-2440882.8496923,12420
4305764.63516235,-2440158.67059783,12140
4305764.63516235,-2439434.49150335,12051
4305764.63516235,-2437986.1333144,12001
4304837.19497681,-2448409.76050474,12023
4304837.19497681,-2447685.49711807,12260
4304837.19497681,-2446961.2337314,12351
4304837.19497681,-2446236.97034473,12506
4304837.19497681,-2445512.70695807,12602
4304837.19497681,-2444788.4435714,12727
4304837.19497681,-2444064.01441146,12790
4304837.19497681,-2443339.7510248,12772
4304837.19497681,-2442615.48763813,12743
4304837.19497681,-2441891.22425146,12699
4304837.19497681,-2441166.96086479,12619
4304837.19497681,-2440442.69747812,12538
4304837.19497681,-2439718.43409145,12441
4304837.19497681,-2438994.17070478,12352
4304837.19497681,-2438269.90731811,12280
4304837.19497681,-2437545.64393145,12185
4304837.19497681,-2436821.38054478,12122
4304837.19497681,-2436097.11715811,12084
4304837.19497681,-2435372.85377144,12043
4303909.33013916,-2447246.09788379,12148
4303909.33013916,-2446521.75018166,12279
4303909.33013916,-2445797.40247952,12400
4303909.33013916,-2445073.05477739,12540
4303909.33013916,-2444348.54128269,12663
4303909.33013916,-2443624.19358056,12738
4303909.33013916,-2442899.84587842,12862
4303909.33013916,-2442175.49817629,12876
4303909.33013916,-2441451.15047415,12800
4303909.33013916,-2440726.80277202,12682
4303909.33013916,-2440002.45506988,12566
4303909.33013916,-2439278.10736775,12502
4303909.33013916,-2438553.75966562,12464
4303909.33013916,-2437829.41196348,12424
4303909.33013916,-2437105.06426135,12381
4303909.33013916,-2436380.71655921,12365
4303909.33013916,-2435656.36885708,12329
4303909.33013916,-2434932.02115494,12180
4303909.33013916,-2434207.67345281,12040
4302981.88995361,-2446081.9159806,12035
4302981.88995361,-2445357.48401691,12203
4302981.88995361,-2444632.88624136,12350
4302981.88995361,-2443908.45427767,12493
4302981.88995361,-2443184.02231398,12654
4302981.88995361,-2442459.59035029,12823
4302981.88995361,-2441735.15838659,12911
4302981.88995361,-2441010.7264229,12886
4302981.88995361,-2440286.29445921,12786
4302981.88995361,-2439561.86249551,12722
4302981.88995361,-2438837.43053182,12653
4302981.88995361,-2438112.99856813,12581
4302981.88995361,-2437388.56660444,12512
4302981.88995361,-2436664.13464074,12481
4302981.88995361,-2435939.70267705,12468
4302981.88995361,-2435215.27071336,12441
4302981.88995361,-2434490.83874966,12379
4302981.88995361,-2433766.24097412,12243
4302054.02511597,-2444192.79342212,12027
4302054.02511597,-2443468.27717361,12420
4302054.02511597,-2442743.76092511,12555
4302054.02511597,-2442019.2446766,12590
4302054.02511597,-2441294.7284281,12719
4302054.02511597,-2440570.21217959,12846
4302054.02511597,-2439845.69593109,12870
4302054.02511597,-2439121.17968258,12787
4302054.02511597,-2438396.66343408,12702
4302054.02511597,-2437672.14718557,12634
4302054.02511597,-2436947.63093707,12604
4302054.02511597,-2436223.11468856,12578
4302054.02511597,-2435498.59844006,12512
4302054.02511597,-2434774.08219155,12476
4302054.02511597,-2434049.40011191,12455
4302054.02511597,-2433324.88386341,12389
4302054.02511597,-2432600.3676149,12111
4301126.58493042,-2497373.614993,12098
4301126.58493042,-2496649.01451358,12118
4301126.58493042,-2495924.41403415,12091
4301126.58493042,-2495199.81355473,12069
4301126.58493042,-2494475.21307531,12047
4301126.58493042,-2493750.61259589,12016
4301126.58493042,-2443027.74978438,12215
4301126.58493042,-2442303.14930496,12314
4301126.58493042,-2441578.54882554,12479
4301126.58493042,-2440853.94834612,12620
4301126.58493042,-2440129.3478667,12700
4301126.58493042,-2439404.74738728,12757
4301126.58493042,-2438680.14690786,12810
4301126.58493042,-2437955.54642844,12787
4301126.58493042,-2437230.94594902,12682
4301126.58493042,-2436506.3454696,12602
4301126.58493042,-2435781.74499018,12567
4301126.58493042,-2435057.14451076,12524
4301126.58493042,-2434332.37818092,12502
4301126.58493042,-2433607.7777015,12536
4301126.58493042,-2432883.17722208,12509
4301126.58493042,-2432158.57674266,12312
4301126.58493042,-2431433.97626324,12110
4301126.58493042,-2430709.37578382,12030
4300198.72009277,-2498388.68608512,12149
4300198.72009277,-2497664.00135154,12213
4300198.72009277,-2496939.31661797,12241
4300198.72009277,-2496214.6318844,12215
4300198.72009277,-2495489.94715083,12171
4300198.72009277,-2494765.26241726,12144
4300198.72009277,-2494040.57768369,12108
4300198.72009277,-2493315.89295011,12070
4300198.72009277,-2442587.13225158,12041
4300198.72009277,-2441862.44751801,12061
4300198.72009277,-2441137.76278444,12156
4300198.72009277,-2440413.07805087,12355
4300198.72009277,-2439688.3933173,12518
4300198.72009277,-2438963.70858373,12608
4300198.72009277,-2438239.02385015,12682
4300198.72009277,-2437514.33911658,12695
4300198.72009277,-2436789.65438301,12619
4300198.72009277,-2436064.96964944,12560
4300198.72009277,-2435340.28491587,12524
4300198.72009277,-2434615.43431259,12490
4300198.72009277,-2433890.74957902,12479
4300198.72009277,-2433166.06484545,12530
4300198.72009277,-2432441.38011188,12636
4300198.72009277,-2431716.69537831,12603
4300198.72009277,-2430992.01064473,12458
4300198.72009277,-2430267.32591116,12228
4300198.72009277,-2429542.64117759,12009
4299271.27990723,-2500128.50878982,12008
4299271.27990723,-2499403.73985599,12153
4299271.27990723,-2498678.97092215,12290
4299271.27990723,-2497954.20198831,12354
4299271.27990723,-2497229.43305447,12362
4299271.27990723,-2496504.66412064,12323
4299271.27990723,-2495779.8951868,12282
4299271.27990723,-2495055.12625296,12244
4299271.27990723,-2494330.35731913,12205
4299271.27990723,-2493605.58838529,12151
4299271.27990723,-2492880.81945145,12100
4299271.27990723,-2492156.05051762,12065
4299271.27990723,-2491431.28158378,12019
4299271.27990723,-2439971.85783649,12058
4299271.27990723,-2439247.08890266,12215
4299271.27990723,-2438522.31996882,12336
4299271.27990723,-2437797.55103498,12378
4299271.27990723,-2437072.78210115,12521
4299271.27990723,-2436348.01316731,12511
4299271.27990723,-2435623.24423347,12483
4299271.27990723,-2434898.30941066,12452
4299271.27990723,-2434173.54047682,12435
4299271.27990723,-2433448.77154299,12434
4299271.27990723,-2432724.00260915,12504
4299271.27990723,-2431999.23367531,12611
4299271.27990723,-2431274.46474148,12689
4299271.27990723,-2430549.69580764,12643
4299271.27990723,-2429824.9268738,12517
4299271.27990723,-2429100.15793996,12239
4299271.27990723,-2428375.38900613,12027
4299271.27990723,-2427650.62007229,12001
4298343.41506958,-2504768.32697279,12022
4298343.41506958,-2504043.47381547,12028
4298343.41506958,-2503318.62065815,12015
4298343.41506958,-2502593.76750083,12016
4298343.41506958,-2501868.91434351,12016
4298343.41506958,-2501144.06118619,12029
4298343.41506958,-2500419.04212061,12228
4298343.41506958,-2499694.18896329,12374
4298343.41506958,-2498969.33580597,12390
4298343.41506958,-2498244.48264865,12481
4298343.41506958,-2497519.62949133,12501
4298343.41506958,-2496794.77633401,12487
4298343.41506958,-2496069.92317669,12451
4298343.41506958,-2495345.07001937,12402
4298343.41506958,-2494620.21686205,12336
4298343.41506958,-2493895.36370473,12259
4298343.41506958,-2493170.51054741,12202
4298343.41506958,-2492445.65739009,12190
4298343.41506958,-2491720.80423277,12165
4298343.41506958,-2490995.95107545,12126
4298343.41506958,-2490271.09791813,12097
4298343.41506958,-2489546.07885256,12001
4298343.41506958,-2438805.69420712,12020
4298343.41506958,-2438080.8410498,12131
4298343.41506958,-2437355.98789248,12229
4298343.41506958,-2436631.13473516,12360
4298343.41506958,-2435906.28157784,12354
4298343.41506958,-2435181.26251226,12386
4298343.41506958,-2434456.40935494,12364
4298343.41506958,-2433731.55619762,12332
4298343.41506958,-2433006.7030403,12448
4298343.41506958,-2432281.84988298,12547
4298343.41506958,-2431556.99672566,12637
4298343.41506958,-2430832.14356834,12710
4298343.41506958,-2430107.29041102,12638
4298343.41506958,-2429382.4372537,12430
4298343.41506958,-2428657.58409638,12238
4298343.41506958,-2427932.73093906,12306
4298343.41506958,-2427207.87778174,12210
4298343.41506958,-2426483.02462442,12030
4297415.97488403,-2506509.05414704,12032
4297415.97488403,-2505784.11682011,12154
4297415.97488403,-2505059.17949318,12154
4297415.97488403,-2504334.24216626,12161
4297415.97488403,-2503609.30483933,12143
4297415.97488403,-2502884.3675124,12128
4297415.97488403,-2502159.43018547,12143
4297415.97488403,-2501434.49285854,12257
4297415.97488403,-2500709.3896041,12385
4297415.97488403,-2499984.45227717,12494
4297415.97488403,-2499259.51495024,12568
4297415.97488403,-2498534.57762331,12612
4297415.97488403,-2497809.64029638,12628
4297415.97488403,-2497084.70296946,12621
4297415.97488403,-2496359.76564253,12592
4297415.97488403,-2495634.8283156,12536
4297415.97488403,-2494909.89098867,12468
4297415.97488403,-2494184.95366174,12423
4297415.97488403,-2493460.01633481,12393
4297415.97488403,-2492735.07900789,12389
4297415.97488403,-2492010.14168096,12364
4297415.97488403,-2491285.20435403,12305
4297415.97488403,-2490560.2670271,12250
4297415.97488403,-2489835.16377266,12174
4297415.97488403,-2489110.22644573,12028
4297415.97488403,-2488385.2891188,12022
4297415.97488403,-2436914.07519683,12036
4297415.97488403,-2436189.1378699,12085
4297415.97488403,-2435464.03461545,12195
4297415.97488403,-2434739.09728852,12242
4297415.97488403,-2434014.1599616,12208
4297415.97488403,-2433289.22263467,12279
4297415.97488403,-2432564.28530774,12327
4297415.97488403,-2431839.34798081,12509
4297415.97488403,-2431114.41065388,12630
4297415.97488403,-2430389.47332696,12686
4297415.97488403,-2429664.53600003,12592
4297415.97488403,-2428939.5986731,12448
4297415.97488403,-2428214.66134617,12560
4297415.97488403,-2427489.72401924,12662
4297415.97488403,-2426764.78669232,12403
4297415.97488403,-2426039.84936539,12282
4297415.97488403,-2425314.91203846,12110
4297415.97488403,-2424589.80878401,12013
4296488.11004639,-2507525.17674452,12085
4296488.11004639,-2506800.15522478,12212
4296488.11004639,-2506075.13370504,12287
4296488.11004639,-2505350.11218531,12322
4296488.11004639,-2504625.09066557,12236
4296488.11004639,-2503900.06914583,12246
4296488.11004639,-2503175.04762609,12309
4296488.11004639,-2502450.02610636,12339
4296488.11004639,-2501725.00458662,12375
4296488.11004639,-2500999.8171201,12481
4296488.11004639,-2500274.79560036,12630
4296488.11004639,-2499549.77408062,12749
4296488.11004639,-2498824.75256089,12773
4296488.11004639,-2498099.73104115,12765
4296488.11004639,-2497374.70952141,12750
4296488.11004639,-2496649.68800167,12674
4296488.11004639,-2495924.66648194,12569
4296488.11004639,-2495199.6449622,12500
4296488.11004639,-2494474.62344246,12475
4296488.11004639,-2493749.60192273,12465
4296488.11004639,-2493024.58040299,12489
4296488.11004639,-2492299.55888325,12483
4296488.11004639,-2491574.53736352,12454
4296488.11004639,-2490849.51584378,12367
4296488.11004639,-2490124.32837725,12203
4296488.11004639,-2489399.30685752,12136
4296488.11004639,-2488674.28533778,12093
4296488.11004639,-2487949.26381804,12018
4296488.11004639,-2435021.86314331,12059
4296488.11004639,-2434296.84162358,12058
4296488.11004639,-2433571.82010384,12052
4296488.11004639,-2432846.7985841,12034
4296488.11004639,-2432121.77706437,12230
4296488.11004639,-2431396.75554463,12433
4296488.11004639,-2430671.73402489,12546
4296488.11004639,-2429946.71250516,12621
4296488.11004639,-2429221.69098542,12654
4296488.11004639,-2428496.66946568,12741
4296488.11004639,-2427771.64794595,12835
4296488.11004639,-2427046.62642621,12780
4296488.11004639,-2426321.60490647,12601
4296488.11004639,-2425596.58338674,12602
4296488.11004639,-2424871.39592021,12396
4296488.11004639,-2424146.37440047,12217
4296488.11004639,-2423421.35288074,12062
4295560.66986084,-2507816.1757191,12016
4295560.66986084,-2507091.07006042,12134
4295560.66986084,-2506365.96440174,12241
4295560.66986084,-2505640.85874306,12291
4295560.66986084,-2504915.75308438,12234
4295560.66986084,-2504190.6474257,12292
4295560.66986084,-2503465.54176702,12399
4295560.66986084,-2502740.43610834,12479
4295560.66986084,-2502015.33044966,12513
4295560.66986084,-2501290.05882493,12586
4295560.66986084,-2500564.95316625,12720
4295560.66986084,-2499839.84750757,12886
4295560.66986084,-2499114.74184889,12698
4295560.66986084,-2498389.63619021,12588
4295560.66986084,-2497664.53053153,12799
4295560.66986084,-2496939.42487285,12782
4295560.66986084,-2496214.31921417,12640
4295560.66986084,-2495489.21355549,12519
4295560.66986084,-2494764.10789681,12450
4295560.66986084,-2494039.00223813,12419
4295560.66986084,-2493313.89657945,12397
4295560.66986084,-2492588.79092077,12369
4295560.66986084,-2491863.68526209,12331
4295560.66986084,-2491138.57960341,12342
4295560.66986084,-2490413.30797868,12264
4295560.66986084,-2489688.20232,12129
4295560.66986084,-2488963.09666132,12031
4295560.66986084,-2430953.81413667,12126
4295560.66986084,-2430228.70847799,12219
4295560.66986084,-2429503.60281931,12528
4295560.66986084,-2428778.49716063,12641
4295560.66986084,-2428053.39150195,12702
4295560.66986084,-2427328.28584327,12765
4295560.66986084,-2426603.18018459,12854
4295560.66986084,-2425878.07452591,12808
4295560.66986084,-2425152.80290119,12688
4295560.66986084,-2424427.69724251,12505
4295560.66986084,-2423702.59158383,12479
4295560.66986084,-2422977.48592515,12296
4295560.66986084,-2422252.38026646,12103
4295560.66986084,-2421527.27460778,12005
4294632.80502319,-2505931.68541171,12127
4294632.80502319,-2505206.4955909,12164
4294632.80502319,-2504481.3057701,12219
4294632.80502319,-2503756.11594929,12293
4294632.80502319,-2503030.92612848,12405
4294632.80502319,-2502305.73630768,12505
4294632.80502319,-2501580.38050156,12636
4294632.80502319,-2500855.19068075,12771
4294632.80502319,-2500130.00085995,12932
4294632.80502319,-2499404.81103914,12912
4294632.80502319,-2498679.62121833,12861
4294632.80502319,-2497954.43139753,12857
4294632.80502319,-2497229.24157672,12782
4294632.80502319,-2496504.05175591,12655
4294632.80502319,-2495778.86193511,12520
4294632.80502319,-2495053.6721143,12467
4294632.80502319,-2494328.48229349,12428
4294632.80502319,-2493603.29247269,12387
4294632.80502319,-2492878.10265188,12346
4294632.80502319,-2492152.91283107,12259
4294632.80502319,-2491427.72301027,12202
4294632.80502319,-2490702.36720415,12163
4294632.80502319,-2489977.17738334,12125
4294632.80502319,-2429785.59232983,12151
4294632.80502319,-2429060.40250902,12439
4294632.80502319,-2428335.21268822,12609
4294632.80502319,-2427610.02286741,12684
4294632.80502319,-2426884.8330466,12748
4294632.80502319,-2426159.6432258,12754
4294632.80502319,-2425434.28741968,12784
4294632.80502319,-2424709.09759887,12792
4294632.80502319,-2423983.90777807,12731
4294632.80502319,-2423258.71795726,12670
4294632.80502319,-2422533.52813645,12512
4294632.80502319,-2421808.33831565,12263
4294632.80502319,-2421083.14849484,12119
4294632.80502319,-2420357.95867403,12025
4293705.36483765,-2504771.77812406,12104
4293705.36483765,-2504046.50419499,12167
4293705.36483765,-2503321.23026591,12284
4293705.36483765,-2502595.95633683,12383
4293705.36483765,-2501870.51640319,12541
4293705.36483765,-2501145.24247411,12721
4293705.36483765,-2500419.96854503,12867
4293705.36483765,-2499694.69461595,12926
4293705.36483765,-2498969.42068687,12903
4293705.36483765,-2498244.1467578,12771
4293705.36483765,-2497518.87282872,12690
4293705.36483765,-2496793.59889964,12607
4293705.36483765,-2496068.32497056,12520
4293705.36483765,-2495343.05104148,12463
4293705.36483765,-2494617.7771124,12405
4293705.36483765,-2493892.50318332,12357
4293705.36483765,-2493167.22925425,12311
4293705.36483765,-2492441.95532517,12260
4293705.36483765,-2491716.68139609,12197
4293705.36483765,-2490991.24146245,12133
4293705.36483765,-2490265.96753337,12079
4293705.36483765,-2429342.12746797,12068
4293705.36483765,-2428616.85353889,12312
4293705.36483765,-2427891.57960981,12525
4293705.36483765,-2427166.30568073,12571
4293705.36483765,-2426441.03175165,12658
4293705.36483765,-2425715.59181801,12596
4293705.36483765,-2424990.31788894,12691
4293705.36483765,-2424265.04395986,12663
4293705.36483765,-2423539.77003078,12612
4293705.36483765,-2422814.4961017,12594
4293705.36483765,-2422089.22217262,12560
4293705.36483765,-2421363.94824354,12515
4293705.36483765,-2420638.67431446,12441
4293705.36483765,-2419913.40038539,12336
4293705.36483765,-2419188.12645631,12120
4292777.5,-2503611.61436074,12055
4292777.5,-2502886.25630022,12308
4292777.5,-2502160.73221589,12443
4292777.5,-2501435.37415537,12568
4292777.5,-2500710.01609486,12679
4292777.5,-2499984.65803434,12742
4292777.5,-2499259.29997382,12762
4292777.5,-2498533.94191331,12716
4292777.5,-2497808.58385279,12649
4292777.5,-2497083.22579228,12543
4292777.5,-2496357.86773176,12433
4292777.5,-2495632.50967124,12389
4292777.5,-2494907.15161073,12350
4292777.5,-2494181.79355021,12334
4292777.5,-2493456.4354897,12288
4292777.5,-2492731.07742918,12223
4292777.5,-2492005.71936866,12173
4292777.5,-2491280.19528433,12148
4292777.5,-2490554.83722381,12043
4292777.5,-2478223.58417123,12024
4292777.5,-2473146.07774761,12002
4292777.5,-2428173.21390036,12001
4292777.5,-2427447.85583984,12140
4292777.5,-2426722.49777932,12400
4292777.5,-2425996.97369499,12386
4292777.5,-2425271.61563447,12450
4292777.5,-2424546.25757396,12595
4292777.5,-2423820.89951344,12562
4292777.5,-2423095.54145293,12540
4292777.5,-2422370.18339241,12519
4292777.5,-2421644.82533189,12497
4292777.5,-2420919.46727138,12501
4292777.5,-2420194.10921086,12441
4292777.5,-2419468.75115035,12365
4292777.5,-2418743.39308983,12274
4292777.5,-2418018.03502931,12159
4292777.5,-2417292.6769688,12018
4291849.63516235,-2503176.50329497,12179
4291849.63516235,-2502450.89507529,12351
4291849.63516235,-2501725.45289869,12438
4291849.63516235,-2501000.01072209,12509
4291849.63516235,-2500274.56854549,12584
4291849.63516235,-2499549.12636888,12580
4291849.63516235,-2498823.68419228,12605
4291849.63516235,-2498098.24201568,12574
4291849.63516235,-2497372.79983908,12506
4291849.63516235,-2496647.35766247,12414
4291849.63516235,-2495921.91548587,12321
4291849.63516235,-2495196.47330927,12223
4291849.63516235,-2494471.03113267,12166
4291849.63516235,-2493745.58895606,12146
4291849.63516235,-2493020.14677946,12148
4291849.63516235,-2492294.70460286,12137
4291849.63516235,-2491569.09638318,12081
4291849.63516235,-2490843.65420658,12023
4291849.63516235,-2479961.85551447,12007
4291849.63516235,-2479236.41333787,12023
4291849.63516235,-2478510.97116127,12063
4291849.63516235,-2477785.52898466,12044
4291849.63516235,-2477060.08680806,12041
4291849.63516235,-2474883.76027825,12024
4291849.63516235,-2474158.31810165,12034
4291849.63516235,-2473432.87592505,12042
4291849.63516235,-2472707.43374845,12043
4291849.63516235,-2426278.30423053,12018
4291849.63516235,-2425552.86205393,12245
4291849.63516235,-2424827.41987732,12479
4291849.63516235,-2424101.97770072,12503
4291849.63516235,-2423376.53552412,12473
4291849.63516235,-2422651.09334752,12451
4291849.63516235,-2421925.65117091,12409
4291849.63516235,-2421200.20899431,12384
4291849.63516235,-2420474.76681771,12376
4291849.63516235,-2419749.32464111,12346
4291849.63516235,-2419023.8824645,12310
4291849.63516235,-2418298.4402879,12252
4291849.63516235,-2417572.9981113,12161
4291849.63516235,-2416847.5559347,12070
4291849.63516235,-2415396.50553842,12010
4290922.19497681,-2502740.87221397,12242
4290922.19497681,-2502015.34597512,12325
4290922.19497681,-2501289.81973627,12386
4290922.19497681,-2500564.29349742,12427
4290922.19497681,-2499838.76725857,12433
4290922.19497681,-2499113.24101972,12423
4290922.19497681,-2498387.71478087,12403
4290922.19497681,-2497662.18854202,12339
4290922.19497681,-2496936.66230317,12281
4290922.19497681,-2496211.13606432,12239
4290922.19497681,-2495485.60982547,12173
4290922.19497681,-2494760.08358662,12143
4290922.19497681,-2494034.55734777,12151
4290922.19497681,-2493309.03110892,12080
4290922.19497681,-2492583.50487007,12042
4290922.19497681,-2491857.81256891,12061
4290922.19497681,-2491132.28633006,12037
4290922.19497681,-2481700.445225,12008
4290922.19497681,-2480974.75292384,12037
4290922.19497681,-2480249.22668499,12060
4290922.19497681,-2479523.70044614,12091
4290922.19497681,-2478798.17420729,12089
4290922.19497681,-2478072.64796844,12075
4290922.19497681,-2477347.12172959,12021
4290922.19497681,-2476621.59549074,12024
4290922.19497681,-2475896.06925189,12032
4290922.19497681,-2475170.54301304,12096
4290922.19497681,-2474445.01677419,12087
4290922.19497681,-2473719.49053534,12103
4290922.19497681,-2472993.96429649,12120
4290922.19497681,-2472268.43805764,12127
4290922.19497681,-2471542.91181879,12124
4290922.19497681,-2470817.38557994,12122
4290922.19497681,-2470091.69327878,12116
4290922.19497681,-2469366.16703993,12071
4290922.19497681,-2467915.11456223,12006
4290922.19497681,-2425833.92845968,12001
4290922.19497681,-2425108.40222083,12109
4290922.19497681,-2424382.87598198,12300
4290922.19497681,-2423657.34974313,12420
4290922.19497681,-2422931.82350428,12365
4290922.19497681,-2422206.29726543,12338
4290922.19497681,-2421480.77102658,12326
4290922.19497681,-2420755.24478773,12322
4290922.19497681,-2420029.71854888,12284
4290922.19497681,-2419304.19231003,12242
4290922.19497681,-2418578.66607118,12205
4290922.19497681,-2417853.13983232,12167
4290922.19497681,-2417127.61359347,12092
4289994.33013916,-2503030.92917261,12167
4289994.33013916,-2502305.31884837,12234
4289994.33013916,-2501579.70852413,12287
4289994.33013916,-2500854.0981999,12288
4289994.33013916,-2500128.48787566,12296
4289994.33013916,-2499402.87755142,12274
4289994.33013916,-2498677.26722719,12239
4289994.33013916,-2497951.65690295,12178
4289994.33013916,-2497226.04657871,12125
4289994.33013916,-2496500.43625448,12129
4289994.33013916,-2495774.82593024,12132
4289994.33013916,-2495049.215606,12110
4289994.33013916,-2494323.60528177,12122
4289994.33013916,-2493597.99495753,12078
4289994.33013916,-2482713.67401242,12020
4289994.33013916,-2481988.06368818,12042
4289994.33013916,-2481262.28728239,12094
4289994.33013916,-2480536.67695815,12118
4289994.33013916,-2479811.06663391,12135
4289994.33013916,-2479085.45630968,12130
4289994.33013916,-2478359.84598544,12125
4289994.33013916,-2477634.2356612,12140
4289994.33013916,-2476908.62533697,12151
4289994.33013916,-2476183.01501273,12167
4289994.33013916,-2475457.40468849,12173
4289994.33013916,-2474731.79436425,12173
4289994.33013916,-2474006.18404002,12183
4289994.33013916,-2473280.57371578,12194
4289994.33013916,-2472554.96339154,12204
4289994.33013916,-2471829.35306731,12209
4289994.33013916,-2471103.74274307,12218
4289994.33013916,-2470377.96633728,12220
4289994.33013916,-2469652.35601304,12198
4289994.33013916,-2468926.7456888,12122
4289994.33013916,-2468201.13536457,12086
4289994.33013916,-2467475.52504033,12052
4289994.33013916,-2423938.24125988,12051
4289994.33013916,-2423212.63093565,12212
4289994.33013916,-2422487.02061141,12210
4289994.33013916,-2421761.41028717,12230
4289994.33013916,-2421035.79996294,12265
4289994.33013916,-2420310.1896387,12277
4289994.33013916,-2419584.57931446,12137
4289994.33013916,-2418858.96899023,12098
4289994.33013916,-2418133.35866599,12052
4289066.88995361,-2503320.80044672,12078
4289066.88995361,-2502595.10609092,12125
4289066.88995361,-2501869.41173513,12141
4289066.88995361,-2501143.71737933,12141
4289066.88995361,-2500418.02302354,12165
4289066.88995361,-2499692.32866774,12163
4289066.88995361,-2498966.63431195,12149
4289066.88995361,-2498240.93995615,12093
4289066.88995361,-2497515.24560036,12048
4289066.88995361,-2496789.55124456,12044
4289066.88995361,-2496063.85688877,12060
4289066.88995361,-2495338.16253297,12057
4289066.88995361,-2494612.46817718,12048
4289066.88995361,-2493886.77382138,12029
4289066.88995361,-2484452.58109526,12014
4289066.88995361,-2483726.88673946,12023
4289066.88995361,-2483001.19238367,12053
4289066.88995361,-2482275.49802787,12103
4289066.88995361,-2481549.63757128,12136
4289066.88995361,-2480823.94321549,12173
4289066.88995361,-2480098.24885969,12197
4289066.88995361,-2479372.5545039,12204
4289066.88995361,-2478646.8601481,12213
4289066.88995361,-2477921.16579231,12234
4289066.88995361,-2477195.47143651,12264
4289066.88995361,-2476469.77708072,12273
4289066.88995361,-2475744.08272492,12289
4289066.88995361,-2475018.38836913,12299
4289066.88995361,-2474292.69401333,12289
4289066.88995361,-2473566.99965754,12292
4289066.88995361,-2472841.30530174,12300
4289066.88995361,-2472115.61094595,12303
4289066.88995361,-2471389.91659015,12308
4289066.88995361,-2470664.05613357,12309
4289066.88995361,-2469938.36177777,12283
4289066.88995361,-2469212.66742198,12218
4289066.88995361,-2468486.97306618,12149
4289066.88995361,-2418413.39811316,12015
4288139.02511597,-2495627.18896483,12065
4288139.02511597,-2494901.41055435,12068
4288139.02511597,-2484740.34668767,12021
4288139.02511597,-2484014.5682772,12066
4288139.02511597,-2483288.78986672,12112
4288139.02511597,-2482563.01145625,12156
4288139.02511597,-2481837.06692574,12203
4288139.02511597,-2481111.28851527,12236
4288139.02511597,-2480385.51010479,12259
4288139.02511597,-2479659.73169432,12287
4288139.02511597,-2478933.95328384,12328
4288139.02511597,-2478208.17487337,12359
4288139.02511597,-2477482.39646289,12386
4288139.02511597,-2476756.61805242,12408
4288139.02511597,-2476030.83964194,12439
4288139.02511597,-2475305.06123147,12456
4288139.02511597,-2474579.28282099,12442
4288139.02511597,-2473853.50441052,12447
4288139.02511597,-2473127.72600004,12440
4288139.02511597,-2472401.94758957,12411
4288139.02511597,-2471676.16917909,12420
4288139.02511597,-2470950.22464859,12417
4288139.02511597,-2470224.44623811,12400
4288139.02511597,-2469498.66782764,12357
4288139.02511597,-2468772.88941716,12282
4288139.02511597,-2468047.11100669,12212
4288139.02511597,-2467321.33259621,12043
4287211.58493042,-2485027.92803106,12013
4287211.58493042,-2484302.06561972,12080
4287211.58493042,-2483576.20320838,12137
4287211.58493042,-2482850.34079705,12193
4287211.58493042,-2482124.31224645,12232
4287211.58493042,-2481398.44983512,12265
4287211.58493042,-2480672.58742378,12309
4287211.58493042,-2479946.72501244,12355
4287211.58493042,-2479220.86260111,12409
4287211.58493042,-2478495.00018977,12455
4287211.58493042,-2477769.13777843,12497
4287211.58493042,-2477043.2753671,12537
4287211.58493042,-2476317.41295576,12583
4287211.58493042,-2475591.55054442,12610
4287211.58493042,-2474865.68813309,12606
4287211.58493042,-2474139.82572175,12624
4287211.58493042,-2473413.96331041,12619
4287211.58493042,-2472688.10089908,12596
4287211.58493042,-2471962.23848774,12585
4287211.58493042,-2471236.20993715,12579
4287211.58493042,-2470510.34752581,12564
4287211.58493042,-2469784.48511448,12537
4287211.58493042,-2469058.62270314,12461
4287211.58493042,-2468332.7602918,12362
4287211.58493042,-2467606.89788047,12249
4287211.58493042,-2466881.03546913,12050
4286283.72009277,-2486041.53490751,12001
4286283.72009277,-2485315.5884722,12038
4286283.72009277,-2484589.6420369,12107
4286283.72009277,-2483863.6956016,12169
4286283.72009277,-2483137.7491663,12225
4286283.72009277,-2482411.63657251,12265
4286283.72009277,-2481685.6901372,12308
4286283.72009277,-2480959.7437019,12357
4286283.72009277,-2480233.7972666,12406
4286283.72009277,-2479507.8508313,12483
4286283.72009277,-2478781.904396,12546
4286283.72009277,-2478055.95796069,12597
4286283.72009277,-2477330.01152539,12643
4286283.72009277,-2476604.06509009,12695
4286283.72009277,-2475878.11865479,12737
4286283.72009277,-2475152.17221948,12757
4286283.72009277,-2474426.22578418,12776
4286283.72009277,-2473700.27934888,12775
4286283.72009277,-2472974.33291358,12777
4286283.72009277,-2472248.38647827,12767
4286283.72009277,-2471522.27388448,12746
4286283.72009277,-2470796.32744918,12729
4286283.72009277,-2470070.38101388,12694
4286283.72009277,-2469344.43457858,12618
4286283.72009277,-2468618.48814327,12516
4286283.72009277,-2467892.54170797,12352
4286283.72009277,-2467166.59527267,12232
4286283.72009277,-2466440.64883737,12095
4286283.72009277,-2465714.70240206,12167
4286283.72009277,-2464988.75596676,12131
4286283.72009277,-2464262.80953146,12109
4286283.72009277,-2463536.86309616,12053
4285356.27990723,-2486329.09510574,12030
4285356.27990723,-2485603.06470028,12070
4285356.27990723,-2484877.03429482,12140
4285356.27990723,-2484151.00388936,12202
4285356.27990723,-2483424.9734839,12258
4285356.27990723,-2482698.77690073,12310
4285356.27990723,-2481972.74649527,12371
4285356.27990723,-2481246.71608981,12421
4285356.27990723,-2480520.68568435,12492
4285356.27990723,-2479794.65527889,12561
4285356.27990723,-2479068.62487343,12612
4285356.27990723,-2478342.59446797,12677
4285356.27990723,-2477616.56406251,12745
4285356.27990723,-2476890.53365705,12810
4285356.27990723,-2476164.50325159,12864
4285356.27990723,-2475438.47284612,12894
4285356.27990723,-2474712.44244066,12921
4285356.27990723,-2473986.4120352,12928
4285356.27990723,-2473260.38162974,12920
4285356.27990723,-2472534.35122428,12904
4285356.27990723,-2471808.15464111,12875
4285356.27990723,-2471082.12423565,12839
4285356.27990723,-2470356.09383019,12800
4285356.27990723,-2469630.06342473,12759
4285356.27990723,-2468904.03301927,12733
4285356.27990723,-2468178.00261381,12714
4285356.27990723,-2467451.97220835,12574
4285356.27990723,-2466725.94180289,12432
4285356.27990723,-2465999.91139743,12379
4285356.27990723,-2465273.88099197,12357
4285356.27990723,-2464547.85058651,12381
4285356.27990723,-2463821.82018105,12306
4285356.27990723,-2463095.78977559,12231
4285356.27990723,-2462369.75937013,12149
4285356.27990723,-2461643.72896467,12062
4285356.27990723,-2460917.5323815,12038
4285356.27990723,-2460191.50197604,12011
4284428.41506958,-2486616.73436452,12016
4284428.41506958,-2485890.61996582,12066
4284428.41506958,-2485164.50556711,12131
4284428.41506958,-2484438.39116841,12196
4284428.41506958,-2483712.2767697,12262
4284428.41506958,-2482985.99617406,12336
4284428.41506958,-2482259.88177536,12428
4284428.41506958,-2481533.76737665,12494
4284428.41506958,-2480807.65297795,12547
4284428.41506958,-2480081.53857924,12632
4284428.41506958,-2479355.42418054,12673
4284428.41506958,-2478629.30978183,12758
4284428.41506958,-2477903.19538313,12852
4284428.41506958,-2477177.08098442,12927
4284428.41506958,-2476450.96658572,13001
4284428.41506958,-2475724.85218701,13055
4284428.41506958,-2474998.73778831,13110
4284428.41506958,-2474272.6233896,13111
4284428.41506958,-2473546.5089909,13097
4284428.41506958,-2472820.39459219,13070
4284428.41506958,-2472094.11399656,12998
4284428.41506958,-2471367.99959785,12920
4284428.41506958,-2470641.88519915,12862
4284428.41506958,-2469915.77080044,12841
4284428.41506958,-2469189.65640174,12799
4284428.41506958,-2468463.54200303,12794
4284428.41506958,-2467737.42760433,12785
4284428.41506958,-2467011.31320562,12720
4284428.41506958,-2466285.19880692,12646
4284428.41506958,-2465559.08440821,12597
4284428.41506958,-2464832.97000951,12568
4284428.41506958,-2464106.8556108,12489
4284428.41506958,-2463380.7412121,12469
4284428.41506958,-2462654.62681339,12422
4284428.41506958,-2461928.51241469,12341
4284428.41506958,-2461202.23181905,12246
4284428.41506958,-2460476.11742034,12111
4284428.41506958,-2459750.00302164,12039
4283500.97488403,-2486177.99105426,12051
4283500.97488403,-2485451.7927161,12108
4283500.97488403,-2484725.59437795,12168
4283500.97488403,-2483999.3960398,12238
4283500.97488403,-2483273.0314855,12327
4283500.97488403,-2482546.83314735,12413
4283500.97488403,-2481820.6348092,12487
4283500.97488403,-2481094.43647104,12554
4283500.97488403,-2480368.23813289,12640
4283500.97488403,-2479642.03979474,12728
4283500.97488403,-2478915.84145659,12840
4283500.97488403,-2478189.64311843,12982
4283500.97488403,-2477463.44478028,13082
4283500.97488403,-2476737.24644213,13198
4283500.97488403,-2476011.04810398,13385
4283500.97488403,-2475284.84976582,13515
4283500.97488403,-2474558.65142767,13510
4283500.97488403,-2473832.45308952,13385
4283500.97488403,-2473106.25475137,13261
4283500.97488403,-2472379.89019707,13115
4283500.97488403,-2471653.69185892,13004
4283500.97488403,-2470927.49352076,12910
4283500.97488403,-2470201.29518261,12835
4283500.97488403,-2469475.09684446,12810
4283500.97488403,-2468748.89850631,12783
4283500.97488403,-2468022.70016815,12759
4283500.97488403,-2467296.50183,12756
4283500.97488403,-2466570.30349185,12756
4283500.97488403,-2465844.1051537,12746
4283500.97488403,-2465117.90681554,12732
4283500.97488403,-2464391.70847739,12655
4283500.97488403,-2463665.51013924,12642
4283500.97488403,-2462939.31180109,12602
4283500.97488403,-2462213.11346293,12501
4283500.97488403,-2461486.74890864,12394
4283500.97488403,-2460760.55057048,12288
4283500.97488403,-2460034.35223233,12216
4283500.97488403,-2459308.15389418,12130
4283500.97488403,-2458581.95555603,12018
4282573.11004639,-2485739.15881919,12059
4282573.11004639,-2485012.87651852,12131
4282573.11004639,-2484286.59421785,12204
4282573.11004639,-2483560.14568182,12281
4282573.11004639,-2482833.86338115,12363
4282573.11004639,-2482107.58108048,12445
4282573.11004639,-2481381.29877981,12545
4282573.11004639,-2480655.01647914,12646
4282573.11004639,-2479928.73417847,12749
4282573.11004639,-2479202.4518778,12894
4282573.11004639,-2478476.16957714,13046
4282573.11004639,-2477749.88727647,13180
4282573.11004639,-2477023.6049758,13394
4282573.11004639,-2476297.32267513,13725
4282573.11004639,-2475571.04037446,14065
4282573.11004639,-2474844.75807379,14021
4282573.11004639,-2474118.47577312,13643
4282573.11004639,-2473392.19347245,13372
4282573.11004639,-2472665.74493642,13182
4282573.11004639,-2471939.46263575,13011
4282573.11004639,-2471213.18033509,12882
4282573.11004639,-2470486.89803442,12824
4282573.11004639,-2469760.61573375,12783
4282573.11004639,-2469034.33343308,12740
4282573.11004639,-2468308.05113241,12701
4282573.11004639,-2467581.76883174,12690
4282573.11004639,-2466855.48653107,12698
4282573.11004639,-2466129.2042304,12716
4282573.11004639,-2465402.92192974,12749
4282573.11004639,-2464676.63962907,12784
4282573.11004639,-2463950.3573284,12801
4282573.11004639,-2463224.07502773,12738
4282573.11004639,-2462497.79272706,12657
4282573.11004639,-2461771.34419103,12561
4282573.11004639,-2461045.06189036,12457
4282573.11004639,-2460318.77958969,12356
4282573.11004639,-2459592.49728902,12245
4282573.11004639,-2458866.21498835,12158
4282573.11004639,-2458139.93268769,12043
4282573.11004639,-2457413.65038702,12006
4281645.66986084,-2486026.34083495,12011
4281645.66986084,-2485299.97462555,12081
4281645.66986084,-2484573.60841615,12163
4281645.66986084,-2483847.07595218,12248
4281645.66986084,-2483120.70974278,12329
4281645.66986084,-2482394.34353339,12416
4281645.66986084,-2481667.97732399,12521
4281645.66986084,-2480941.61111459,12597
4281645.66986084,-2480215.24490519,12700
4281645.66986084,-2479488.87869579,12814
4281645.66986084,-2478762.51248639,12966
4281645.66986084,-2478036.14627699,13140
4281645.66986084,-2477309.7800676,13388
4281645.66986084,-2476583.4138582,13711
4281645.66986084,-2475857.0476488,14041
4281645.66986084,-2475130.6814394,13909
4281645.66986084,-2474404.31523,13514
4281645.66986084,-2473677.9490206,13279
4281645.66986084,-2472951.41655664,13090
4281645.66986084,-2472225.05034724,12956
4281645.66986084,-2471498.68413784,12863
4281645.66986084,-2470772.31792844,12789
4281645.66986084,-2470045.95171904,12739
4281645.66986084,-2469319.58550965,12710
4281645.66986084,-2468593.21930025,12673
4281645.66986084,-2467866.85309085,12645
4281645.66986084,-2467140.48688145,12631
4281645.66986084,-2466414.12067205,12662
4281645.66986084,-2465687.75446265,12727
4281645.66986084,-2464961.38825325,12763
4281645.66986084,-2464235.02204386,12796
4281645.66986084,-2463508.65583446,12813
4281645.66986084,-2462782.28962506,12790
4281645.66986084,-2462055.75716109,12724
4281645.66986084,-2461329.39095169,12631
4281645.66986084,-2460603.0247423,12526
4281645.66986084,-2459876.6585329,12410
4281645.66986084,-2459150.2923235,12280
4281645.66986084,-2458423.9261141,12122
4281645.66986084,-2457697.5599047,12040
4281645.66986084,-2456971.1936953,12020
4281645.66986084,-2456244.82748591,12006
4280717.80502319,-2484860.70146214,12085
4280717.80502319,-2484134.08504718,12159
4280717.80502319,-2483407.634906,12232
4280717.80502319,-2482681.18476482,12312
4280717.80502319,-2481954.73462364,12401
4280717.80502319,-2481228.28448247,12466
4280717.80502319,-2480501.83434129,12545
4280717.80502319,-2479775.38420011,12669
4280717.80502319,-2479048.93405893,12806
4280717.80502319,-2478322.48391775,12996
4280717.80502319,-2477596.03377657,13215
4280717.80502319,-2476869.58363539,13430
4280717.80502319,-2476143.13349421,13551
4280717.80502319,-2475416.68335303,13419
4280717.80502319,-2474690.23321185,13221
4280717.80502319,-2473963.78307067,13104
4280717.80502319,-2473237.16665571,12967
4280717.80502319,-2472510.71651454,12855
4280717.80502319,-2471784.26637336,12815
4280717.80502319,-2471057.81623218,12764
4280717.80502319,-2470331.366091,12694
4280717.80502319,-2469604.91594982,12676
4280717.80502319,-2468878.46580864,12645
4280717.80502319,-2468152.01566746,12610
4280717.80502319,-2467425.56552628,12589
4280717.80502319,-2466699.1153851,12600
4280717.80502319,-2465972.66524392,12659
4280717.80502319,-2465246.21510274,12700
4280717.80502319,-2464519.76496156,12767
4280717.80502319,-2463793.31482038,12800
4280717.80502319,-2463066.86467921,12826
4280717.80502319,-2462340.24826425,12821
4280717.80502319,-2461613.79812307,12777
4280717.80502319,-2460887.34798189,12748
4280717.80502319,-2460160.89784071,12688
4280717.80502319,-2459434.44769953,12543
4280717.80502319,-2458707.99755835,12355
4280717.80502319,-2457981.54741717,12216
4280717.80502319,-2457255.09727599,12166
4280717.80502319,-2456528.64713481,12118
4280717.80502319,-2455802.19699363,12058
4280717.80502319,-2454349.29671128,12006
4279790.36483765,-2483694.37623301,12099
4279790.36483765,-2482967.84221383,12172
4279790.36483765,-2482241.30819464,12244
4279790.36483765,-2481514.77417546,12296
4279790.36483765,-2480788.24015628,12342
4279790.36483765,-2480061.70613709,12438
4279790.36483765,-2479335.17211791,12581
4279790.36483765,-2478608.63809872,12723
4279790.36483765,-2477882.10407954,12837
4279790.36483765,-2477155.57006036,12971
4279790.36483765,-2476429.03604117,13038
4279790.36483765,-2475702.50202199,12984
4279790.36483765,-2474975.9680028,12900
4279790.36483765,-2474249.43398362,12853
4279790.36483765,-2473522.73367146,12788
4279790.36483765,-2472796.19965227,12728
4279790.36483765,-2472069.66563309,12700
4279790.36483765,-2471343.13161391,12672
4279790.36483765,-2470616.59759472,12622
4279790.36483765,-2469890.06357554,12593
4279790.36483765,-2469163.52955635,12555
4279790.36483765,-2468436.99553717,12546
4279790.36483765,-2467710.46151799,12529
4279790.36483765,-2466983.9274988,12528
4279790.36483765,-2466257.39347962,12553
4279790.36483765,-2465530.85946043,12621
4279790.36483765,-2464804.32544125,12697
4279790.36483765,-2464077.79142207,12740
4279790.36483765,-2463351.25740288,12781
4279790.36483765,-2462624.55709072,12843
4279790.36483765,-2461898.02307154,12901
4279790.36483765,-2461171.48905235,12897
4279790.36483765,-2460444.95503317,12920
4279790.36483765,-2459718.42101398,12851
4279790.36483765,-2458991.8869948,12756
4279790.36483765,-2458265.35297562,12656
4279790.36483765,-2457538.81895643,12583
4279790.36483765,-2456812.28493725,12472
4279790.36483765,-2456085.75091806,12380
4279790.36483765,-2455359.21689888,12395
4279790.36483765,-2454632.6828797,12400
4279790.36483765,-2453906.14886051,12406
4279790.36483765,-2453179.61484133,12355
4279790.36483765,-2452453.08082214,12337
4279790.36483765,-2451726.38050998,12318
4279790.36483765,-2450273.31247161,12199
4279790.36483765,-2449546.77845243,12119
4279790.36483765,-2448820.24443325,12042
4279790.36483765,-2448093.71041406,12045
4279790.36483765,-2447367.17639488,12033
4279790.36483765,-2446640.64237569,12003
4278862.5,-2483254.57838115,12030
4278862.5,-2482527.96046093,12066
4278862.5,-2481801.34254071,12090
4278862.5,-2481074.72462049,12135
4278862.5,-2480348.10670026,12188
4278862.5,-2479621.48878004,12263
4278862.5,-2478894.87085982,12276
4278862.5,-2478168.2529396,12287
4278862.5,-2477441.63501938,12348
4278862.5,-2476715.01709915,12432
4278862.5,-2475988.39917893,12525
4278862.5,-2475261.78125871,12543
4278862.5,-2474535.16333849,12567
4278862.5,-2473808.37910608,12561
4278862.5,-2473081.76118586,12538
4278862.5,-2472355.14326564,12538
4278862.5,-2471628.52534541,12524
4278862.5,-2470901.90742519,12503
4278862.5,-2470175.28950497,12487
4278862.5,-2469448.67158475,12478
4278862.5,-2468722.05366453,12450
4278862.5,-2467995.4357443,12453
4278862.5,-2467268.81782408,12443
4278862.5,-2466542.19990386,12445
4278862.5,-2465815.58198364,12483
4278862.5,-2465088.96406341,12534
4278862.5,-2464362.34614319,12598
4278862.5,-2463635.72822297,12661
4278862.5,-2462908.94399057,12745
4278862.5,-2462182.32607034,12807
4278862.5,-2461455.70815012,12838
4278862.5,-2460729.0902299,12914
4278862.5,-2460002.47230968,12965
4278862.5,-2459275.85438945,12923
4278862.5,-2458549.23646923,12901
4278862.5,-2457822.61854901,12910
4278862.5,-2457096.00062879,12857
4278862.5,-2456369.38270856,12816
4278862.5,-2455642.76478834,12805
4278862.5,-2454916.14686812,12771
4278862.5,-2454189.5289479,12717
4278862.5,-2453462.91102768,12641
4278862.5,-2452736.29310745,12592
4278862.5,-2452009.50887505,12579
4278862.5,-2451282.89095483,12486
4278862.5,-2450556.2730346,12398
4278862.5,-2449829.65511438,12286
4278862.5,-2449103.03719416,12212
4278862.5,-2448376.41927394,12176
4278862.5,-2447649.80135371,12140
4278862.5,-2446923.18343349,12082
4278862.5,-2446196.56551327,12020
4277934.63516235,-2481361.15657765,12024
4277934.63516235,-2480634.45477176,12078
4277934.63516235,-2479907.75296588,12107
4277934.63516235,-2479181.05116,12075
4277934.63516235,-2478454.34935411,12044
4277934.63516235,-2477000.94574235,12077
4277934.63516235,-2476274.24393646,12152
4277934.63516235,-2475547.54213058,12236
4277934.63516235,-2474820.8403247,12286
4277934.63516235,-2474093.97218743,12347
4277934.63516235,-2473367.27038155,12357
4277934.63516235,-2472640.56857567,12365
4277934.63516235,-2471913.86676978,12362
4277934.63516235,-2471187.1649639,12347
4277934.63516235,-2470460.46315802,12341
4277934.63516235,-2469733.76135213,12332
4277934.63516235,-2469007.05954625,12363
4277934.63516235,-2468280.35774037,12363
4277934.63516235,-2467553.65593448,12311
4277934.63516235,-2466826.9541286,12312
4277934.63516235,-2466100.25232272,12350
4277934.63516235,-2465373.55051683,12374
4277934.63516235,-2464646.84871095,12440
4277934.63516235,-2463920.14690507,12543
4277934.63516235,-2463193.2787678,12661
4277934.63516235,-2462466.57696192,12762
4277934.63516235,-2461739.87515604,12825
4277934.63516235,-2461013.17335015,12886
4277934.63516235,-2460286.47154427,12889
4277934.63516235,-2459559.76973839,12875
4277934.63516235,-2458833.0679325,12859
4277934.63516235,-2458106.36612662,12860
4277934.63516235,-2457379.66432074,12878
4277934.63516235,-2456652.96251485,12848
4277934.63516235,-2455926.26070897,12845
4277934.63516235,-2455199.55890309,12812
4277934.63516235,-2454472.8570972,12792
4277934.63516235,-2453746.15529132,12734
4277934.63516235,-2453019.45348544,12718
4277934.63516235,-2452292.58534817,12693
4277934.63516235,-2451565.88354229,12582
4277934.63516235,-2450839.18173641,12483
4277934.63516235,-2450112.47993052,12395
4277934.63516235,-2449385.77812464,12353
4277934.63516235,-2448659.07631876,12273
4277934.63516235,-2447932.37451287,12237
4277934.63516235,-2447205.67270699,12164
4277934.63516235,-2446478.97090111,12096
4277934.63516235,-2445752.26909522,12042
4277007.19497681,-2474379.38223919,12156
4277007.19497681,-2473652.59660141,12149
4277007.19497681,-2472925.81096363,12154
4277007.19497681,-2472199.02532584,12159
4277007.19497681,-2471472.23968806,12149
4277007.19497681,-2470745.45405027,12165
4277007.19497681,-2470018.66841249,12185
4277007.19497681,-2469291.88277471,12209
4277007.19497681,-2468565.09713692,12192
4277007.19497681,-2467838.31149914,12158
4277007.19497681,-2467111.52586135,12144
4277007.19497681,-2466384.74022357,12261
4277007.19497681,-2465657.95458579,12216
4277007.19497681,-2464931.168948,12245
4277007.19497681,-2464204.38331022,12374
4277007.19497681,-2463477.43132187,12518
4277007.19497681,-2462750.64568408,12683
4277007.19497681,-2462023.8600463,12888
4277007.19497681,-2461297.07440851,12746
4277007.19497681,-2460570.28877073,12725
4277007.19497681,-2459843.50313295,12749
4277007.19497681,-2459116.71749516,12734
4277007.19497681,-2458389.93185738,12676
4277007.19497681,-2457663.14621959,12652
4277007.19497681,-2456936.36058181,12459
4277007.19497681,-2456209.57494403,12598
4277007.19497681,-2455482.78930624,12626
4277007.19497681,-2454756.00366846,12640
4277007.19497681,-2454029.21803068,12639
4277007.19497681,-2453302.43239289,12606
4277007.19497681,-2452575.48040454,12596
4277007.19497681,-2451848.69476675,12564
4277007.19497681,-2451121.90912897,12500
4277007.19497681,-2450395.12349119,12422
4277007.19497681,-2449668.3378534,12375
4277007.19497681,-2448941.55221562,12313
4277007.19497681,-2448214.76657784,12263
4277007.19497681,-2447487.98094005,12208
4277007.19497681,-2446761.19530227,12162
4277007.19497681,-2446034.40966448,12092
4277007.19497681,-2445307.6240267,12046
4276079.33013916,-2473938.00112715,12017
4276079.33013916,-2473211.13163445,12001
4276079.33013916,-2471757.39264907,12008
4276079.33013916,-2471030.52315638,12012
4276079.33013916,-2470303.65366369,12029
4276079.33013916,-2469576.784171,12043
4276079.33013916,-2468849.9146783,12051
4276079.33013916,-2468123.04518561,12034
4276079.33013916,-2467396.17569292,12134
4276079.33013916,-2466669.30620023,12135
4276079.33013916,-2465942.43670754,12054
4276079.33013916,-2465215.56721485,12100
4276079.33013916,-2464488.69772215,12174
4276079.33013916,-2463761.6618597,12373
4276079.33013916,-2463034.79236701,12534
4276079.33013916,-2462307.92287432,12642
4276079.33013916,-2461581.05338163,12554
